88 87 87 87 87 87 88 88 89 89 89 89 89 90 90 90 90 90 90 90 89 89 89 89 89 90 90 90 90 91 91 91 91 90 90 90 90 90 89 89 89 89 90 90 90 91 91 91 92 92 92 92 92 92 92 92 93 93 93 91 90 88 87 86 86 87 88 90 92 93 95 95 96 95 95 94 94 93 93 92 92 91 91 91 91 91 91 91 90 90 90 90 90 90 89 88 87 86 85 85 85 84 84 83 83 83 82 82 82 82 82 82 81 82 82 82 83 83 84 85 85 86 86 85 85 85 85 84 84 84 84 83 83 83 83 82 83 83 83 83 83 82 82 82 81 81 81 81 81 80 80 80 80 80 80 80 80 80 79 79 79 78 78 78 78 78 78 78 78 78 78 79 78 78 78 78 77 78 77 77 76 76 75 75 75 74 75 75 75 74 74 73 73 73 74 75 76 77 78 79 79 79 79 79 79 79 79 79 79 80 79 80 79 79 79 78 78 79 79 78 78 79 79 80 81 81 82 83 83 84 84 85 85 84 84 84 84 84 84 84 84 84 85 85 85 86 86 85 84 83 83 81 80 78 77 76 76 76 77 78 79 79 80 80 80 81 82 82 83 84 85 85 85 85 85 85 85 85 84 85 84 84 85 85 86 86 86 86 85 84 83 81 80 79 79 79 79 79 79 80 80 81 81 81 80 80 79 79 78 79 80 80 81 81 81 81 81 81 81 81 82 81 81 80 80 79 78 77 76 76 77 77 78 77 76 75 74 74 74 73 74 75 76 78 80 83 85 86 86 85 84 81 78 75 72 70 69 69 69 70 71 71 71 70 69 69 68 67 68 68 69 69 69 69 70 70 70 70 70 70 70 69 69 67 66 65 64 62 62 61 60 60 61 62 62 63 63 62 61 61 61 60 59 57 57 56 56 56 56 57 58 59 62 65 68 71 73 74 73 73 72 70 69 67 66 66 65 65 65 67 67 67 67 67 67 67 68 69 70 71 73 75 76 77 77 77 76 74 74 73 72 70 70 70 71 71 72 74 75 77 78 77 77 77 76 75 75 73 72 70 70 68 67 67 68 69 71 74 76 77 78 78 77 76 74 72 69 67 64 60 57 53 51 49 48 49 50 51 52 54 56 58 60 62 64 66 69 70 72 73 74 75 75 76 77 77 77 76 74 73 71 68 66 63 61 59 59 59 61 62 64 64 64 63 63 62 62 62 62 62 62 62 61 60 59 57 56 54 53 52 51 51 51 52 54 57 59 61 63 65 66 66 67 67 68 68 68 68 68 67 66 65 64 63 62 60 60 59 58 58 58 58 58 57 56 56 55 55 55 54 55 56 56 57 58 59 59 60 61 61 61 61 61 61 60 60 59 59 59 59 59 59 59 58 57 56 56 55 55 56 56 56 56 56 56 56 56 56 57 58 59 60 60 60 59 59 57 57 57 57 58 59 62 67 73 81 88 94 96 94 90 84 78 73 72 72 74 76 79 81 83 84 82 79 76 71 67 63 59 57 57 60 66 72 79 85 87 87 82 76 69 64 60 58 56 55 55 55 55 55 56 57 58 58 59 58 58 58 58 58 59 60 61 62 63 63 63 62 61 60 59 57 56 55 56 56 57 58 58 58 57 56 56 55 54 53 52 52 51 51 51 51 51 51 51 52 52 52 51 52 51 52 52 51 51 51 51 51 51 52 52 52 53 52 53 53 53 52 52 52 52 52 52 53 53 54 54 54 54 54 53 53 53 53 53 53 53 54 54 54 54 53 53 53 53 53 53 53 53 53 53 53 53 53 53 53 53 53 54 54 54 54 54 53 52 52 51 51 51 51 51 51 51 51 52 52 52 52 52 52 52 51 51 51 51 51 51 50 50 50 50 50 51 50 50 50 50 50 50 49 49 49 49 49 49 49 49 50 50 49 50 49 49 49 49 49 49 49 48 49 48 47 47 47 47 47 48 48 49 48 49 49 49 49 49 49 49 49 50 50 50 51 50 51 51 51 51 51 51 51 51 51 51 51 52 52 52 52 52 52 52 51 51 51 50 50 49 49 49 49 49 50 51 51 52 53 53 53 53 53 53 53 52 52 51 50 49 49 49 49 49 50 50 50 49 50 50 49 49 49 49 49 48 48 47 47 47 47 47 48 48 48 48 48 48 48 47 47 47 48 48 49 49 50 50 50 50 49 49 49 48 48
88 88 88 87 87 88 88 89 89 89 89 90 90 90 90 91 91 90 90 90 90 90 90 90 90 91 91 91 91 91 91 91 91 91 91 90 90 90 89 89 89 90 90 90 90 91 91 91 92 92 92 92 92 92 92 93 93 93 93 92 90 89 87 86 86 87 89 90 92 94 95 95 96 96 95 94 94 93 93 92 92 91 91 91 92 91 91 91 91 91 90 90 90 89 89 87 86 85 84 84 84 84 83 83 83 82 82 82 82 82 82 82 82 82 82 82 82 83 83 84 84 85 85 85 84 84 84 83 82 83 83 83 82 83 83 82 82 83 83 82 82 82 81 81 81 81 81 81 80 80 80 80 80 80 80 80 80 79 78 78 77 78 77 77 78 78 78 78 78 79 79 79 79 79 78 78 78 77 77 77 76 76 76 75 75 75 74 74 74 74 73 73 73 72 73 73 74 76 78 78 79 79 79 79 78 78 78 78 78 78 79 79 79 79 79 78 79 79 79 79 78 79 79 80 80 81 83 83 84 84 84 84 85 85 85 84 84 84 84 84 85 85 85 85 86 86 86 86 85 85 84 83 81 79 78 77 76 77 77 78 79 80 80 81 81 81 82 83 84 84 85 85 85 85 85 85 84 84 85 85 84 85 86 86 86 86 86 86 86 84 84 82 80 80 79 79 79 79 79 80 80 81 82 81 81 80 79 78 78 78 79 79 80 80 81 80 80 80 81 81 81 82 81 80 80 79 78 77 76 76 76 77 76 76 75 74 73 73 73 73 74 75 76 78 80 83 84 85 86 85 84 81 78 75 72 71 69 68 69 70 71 72 71 71 69 69 68 68 67 69 68 69 69 69 69 69 70 70 70 70 69 69 68 67 65 65 64 63 62 62 61 61 62 63 63 62 62 62 61 61 61 60 58 57 56 56 56 55 56 57 58 60 61 64 67 69 71 72 73 73 72 70 68 67 66 65 65 65 66 67 67 67 67 67 67 68 68 69 70 71 73 74 75 76 77 77 76 74 73 72 71 70 70 70 71 71 73 75 76 78 79 79 78 77 76 76 75 74 73 72 71 69 69 68 69 70 72 74 76 77 78 77 76 74 72 70 68 65 62 59 56 53 51 49 48 49 50 51 53 55 57 59 61 64 66 68 70 72 74 75 76 76 77 77 77 77 76 76 74 72 70 67 64 62 59 59 58 59 60 62 63 63 63 63 62 62 62 62 61 61 61 61 60 59 58 57 56 55 53 52 52 51 51 52 54 56 60 62 64 66 66 67 67 67 67 67 68 68 68 67 67 66 65 63 62 61 60 59 58 58 58 58 57 57 56 55 55 55 55 55 56 56 57 57 58 59 60 61 61 61 61 61 61 61 61 60 59 59 59 59 59 59 59 58 57 57 56 56 56 56 57 56 56 56 56 56 56 56 57 58 59 60 60 60 59 59 57 57 57 56 57 58 61 66 73 81 89 94 95 93 87 81 75 70 68 68 70 73 75 78 81 82 82 80 78 75 71 67 63 60 59 61 67 73 79 85 87 86 81 75 69 64 60 58 56 56 55 55 55 55 56 57 57 58 58 58 58 58 57 58 58 59 61 61 62 63 62 62 61 60 59 57 56 55 55 55 56 57 57 57 57 56 55 55 54 53 52 52 51 51 51 51 51 51 52 52 52 52 52 51 51 52 52 51 51 51 51 51 51 52 52 52 52 53 53 53 53 53 52 51 52 51 52 52 52 53 54 54 54 54 54 54 54 54 54 53 53 54 54 54 54 54 54 54 53 53 53 53 53 53 53 53 53 53 53 53 53 53 54 54 54 54 54 54 53 52 52 52 51 51 51 51 51 51 52 52 52 53 53 52 52 52 52 51 51 51 50 50 49 50 50 50 51 50 51 51 51 51 50 50 49 49 49 49 49 49 49 50 50 50 49 49 49 49 49 49 49 49 48 48 48 47 47 47 47 47 48 48 48 49 49 49 49 49 49 49 49 50 50 50 50 50 50 50 50 51 51 51 51 51 51 51 51 52 52 52 52 52 52 53 52 52 51 51 50 50 50 49 49 50 50 50 51 51 51 51 51 52 52 53 52 51 51 50 50 50 49 49 50 50 50 51 51 50 50 50 50 50 49 49 49 49 48 48 47 47 47 48 48 49 48 49 49 49 48 48 48 48 48 48 48 49 50 50 51 51 50 49 49 49 48 48
89 89 88 88 88 88 88 89 89 89 89 89 89 90 90 91 91 91 91 91 91 90 90 90 91 91 91 90 90 91 91 91 91 91 91 91 90 89 89 89 89 89 89 90 90 91 91 91 92 92 92 92 92 92 92 93 93 94 93 92 90 89 87 86 86 87 89 91 93 94 95 96 96 96 96 95 94 93 92 92 92 91 91 91 92 91 91 91 91 91 90 90 90 89 88 87 86 84 83 84 84 83 83 83 83 83 82 81 82 81 81 81 81 82 82 81 82 82 83 83 84 84 84 85 84 84 83 82 82 82 82 82 82 82 82 82 82 82 82 82 81 81 81 81 81 81 80 80 80 80 80 80 80 80 80 79 80 79 78 77 77 76 76 76 77 77 78 78 79 79 79 79 79 79 78 78 78 77 77 77 77 76 76 75 75 75 74 74 74 74 73 73 72 72 72 73 74 76 78 78 79 79 79 79 78 78 78 78 78 78 79 79 79 79 79 79 79 79 79 79 79 79 79 80 80 81 83 83 84 84 84 84 85 85 85 84 84 84 84 84 85 85 85 86 87 87 87 87 86 86 85 84 82 81 79 78 78 78 78 79 80 81 81 82 82 82 83 84 84 84 84 85 85 85 85 85 84 84 84 85 85 85 86 86 86 87 87 86 86 85 84 82 81 80 80 79 79 79 79 80 81 82 82 81 81 80 79 79 78 78 78 78 79 79 79 79 79 80 80 80 81 81 81 80 79 78 78 76 76 75 75 76 75 75 74 74 73 73 73 73 74 75 77 78 80 82 83 85 85 84 83 81 78 75 73 70 69 69 68 70 71 72 72 71 70 69 68 68 68 69 69 70 69 69 69 69 70 70 70 69 69 68 67 66 66 65 65 64 64 63 63 63 63 62 62 62 61 61 60 60 59 59 57 56 56 56 56 56 56 57 59 59 62 64 66 69 70 72 72 72 71 69 68 67 66 66 65 66 66 67 67 67 67 67 67 68 68 69 70 71 73 74 76 77 77 77 76 74 73 72 71 70 69 70 70 72 74 76 78 79 80 80 79 77 77 76 75 74 73 72 71 70 70 70 70 71 72 74 75 76 76 75 74 73 70 68 66 63 60 58 55 52 50 48 48 48 49 51 52 54 57 60 62 64 67 69 72 73 75 75 76 76 77 77 77 77 77 76 74 71 69 66 63 61 58 58 57 58 59 61 62 63 63 63 62 62 61 61 61 60 60 60 60 59 58 57 56 55 53 53 52 51 51 53 54 57 60 63 65 67 67 67 67 67 67 67 67 67 67 67 67 66 65 64 63 62 61 60 59 58 58 58 57 56 56 55 55 55 55 56 56 56 57 58 58 59 60 61 62 62 62 62 61 61 61 60 60 60 60 59 59 60 59 59 58 57 57 56 56 57 57 57 57 57 57 56 56 56 56 57 58 60 60 60 60 59 58 57 56 56 56 57 60 66 73 81 88 93 93 91 86 79 73 68 66 65 66 68 71 74 77 80 80 80 79 77 75 71 67 65 64 65 69 75 80 85 87 85 80 74 68 62 59 57 56 56 55 55 55 56 56 58 58 58 59 58 58 58 57 57 58 58 59 60 61 61 61 61 60 59 58 56 55 55 54 55 56 56 56 56 56 55 55 54 53 53 52 52 51 51 51 51 51 51 51 51 52 52 52 52 51 51 51 51 51 52 52 52 52 52 52 52 53 53 53 53 53 53 52 51 51 51 51 52 52 53 53 53 54 54 54 54 54 54 54 54 54 54 55 55 55 55 54 54 54 53 53 53 53 53 53 53 53 53 53 53 53 53 54 54 54 54 54 53 53 53 52 52 52 52 51 51 51 51 52 52 53 53 53 53 53 52 52 52 51 51 51 50 49 49 50 50 50 51 51 51 51 51 51 50 49 48 48 49 49 49 49 49 50 50 49 49 49 49 49 49 49 49 49 48 48 47 47 47 47 47 48 48 48 48 49 49 49 49 49 49 50 50 50 50 50 50 50 50 51 51 51 50 51 51 51 51 52 52 52 52 52 52 52 53 53 52 52 52 51 51 50 50 50 50 50 50 50 50 50 50 50 51 51 51 51 51 50 50 50 50 50 50 50 50 50 51 51 51 50 50 50 50 50 50 50 49 49 48 48 48 48 48 48 49 49 49 49 50 49 49 48 48 48 49 49 50 50 51 51 51 51 50 50 49 49 48
89 89 88 88 87 87 88 88 88 88 88 89 89 89 90 90 90 91 91 91 90 91 90 91 91 91 91 91 91 91 91 91 91 91 91 90 90 89 89 89 89 89 90 90 91 91 91 91 91 92 92 92 92 93 93 93 93 94 93 92 90 88 87 86 86 87 89 91 93 95 96 96 96 96 96 94 94 93 92 92 91 91 91 91 91 92 91 91 91 91 90 90 90 89 88 87 86 84 83 84 84 84 84 84 83 83 83 82 82 81 81 81 81 81 81 82 82 82 83 83 84 84 84 84 83 83 82 82 82 82 81 82 81 81 81 82 82 82 82 82 81 81 81 81 81 81 80 80 80 80 79 80 80 79 79 79 79 78 77 77 76 76 76 76 76 77 78 79 80 80 80 80 80 79 78 78 78 77 77 77 76 76 76 76 76 75 75 74 74 74 73 73 72 72 72 73 74 76 77 79 79 79 79 79 78 78 78 77 77 78 78 78 78 79 79 79 79 79 79 79 79 79 79 80 80 81 83 83 84 84 84 84 84 84 84 84 84 84 84 84 85 85 86 85 86 87 87 87 87 87 86 85 84 82 80 79 78 78 78 79 80 81 81 82 83 83 83 84 84 84 84 84 85 85 85 85 85 84 84 84 85 85 86 86 87 87 87 87 86 86 84 83 82 81 80 79 79 79 80 81 81 82 82 81 81 81 80 78 78 77 77 78 78 78 78 78 78 79 79 80 80 80 80 79 79 78 77 76 75 74 74 74 74 74 73 73 73 73 73 73 74 76 77 78 80 81 83 84 85 84 83 81 78 76 73 70 69 68 69 70 71 72 73 72 71 70 69 69 69 70 70 70 70 70 70 70 70 70 70 69 68 68 67 66 66 66 66 66 65 65 64 64 63 63 62 62 61 60 60 59 58 57 56 55 55 56 57 57 57 58 59 60 61 63 66 68 70 71 71 72 70 69 68 67 67 66 66 66 66 67 67 67 67 67 67 67 68 68 69 71 72 74 76 77 77 77 76 75 73 72 71 70 70 70 71 73 75 77 79 80 81 80 79 78 77 76 75 74 73 72 71 70 70 69 70 71 72 74 75 75 75 74 72 70 68 66 63 61 59 56 54 51 49 48 48 48 49 50 52 54 57 59 62 66 68 71 72 74 75 76 76 77 77 77 77 77 76 75 73 70 67 64 61 59 57 56 56 58 59 60 62 62 63 62 62 61 61 60 60 60 59 59 59 59 58 57 56 55 54 53 53 52 51 53 55 58 61 64 66 67 68 67 67 67 67 67 67 67 67 67 67 66 66 65 63 62 61 60 59 59 57 57 56 56 56 55 55 56 56 56 56 57 58 58 59 59 60 61 62 62 62 62 61 61 61 60 60 60 60 60 59 60 59 59 58 58 57 57 57 57 57 57 57 57 57 56 56 55 56 57 58 59 61 61 60 59 58 57 57 56 56 57 60 64 71 80 87 92 93 90 85 78 72 68 65 63 64 65 68 71 73 76 78 79 79 79 77 75 72 70 69 69 72 77 82 86 87 84 79 72 65 61 58 56 56 55 56 55 56 57 58 59 60 59 59 58 58 57 57 57 57 58 58 59 60 60 60 60 59 58 57 55 54 54 54 54 55 55 55 55 55 55 55 54 54 53 52 52 51 51 51 51 51 51 51 52 52 52 52 51 52 51 51 51 51 52 51 51 52 52 52 52 52 52 53 53 53 53 52 52 51 51 51 52 52 53 53 54 54 54 54 54 54 54 54 54 54 54 54 54 55 55 55 54 54 54 53 53 53 53 53 53 53 53 53 53 53 53 54 54 54 54 54 53 53 53 52 52 52 52 52 51 51 51 52 53 53 53 53 53 53 53 53 52 51 51 51 50 50 50 50 50 51 51 51 51 51 51 51 51 49 49 48 48 49 49 49 49 50 49 49 49 49 49 49 49 49 49 49 48 47 47 47 47 47 47 48 48 48 49 49 49 49 50 50 50 50 50 50 50 50 50 50 50 50 50 50 50 50 50 51 51 51 52 52 52 52 52 52 53 53 53 53 52 52 52 51 51 51 51 50 51 50 50 50 50 49 50 50 50 50 50 50 50 49 50 50 50 50 50 50 51 51 51 51 51 50 50 50 51 51 50 49 49 48 48 48 49 49 50 50 50 50 50 50 50 49 49 49 49 49 50 51 51 52 52 52 51 50 49 49 49
89 89 88 88 88 88 88 88 88 88 88 88 88 88 89 90 90 91 91 91 91 91 91 91 91 91 91 91 91 91 91 91 91 91 91 91 90 90 89 89 89 89 90 91 91 91 91 91 91 92 92 92 92 92 93 93 93 93 93 92 90 88 87 87 86 88 90 93 94 96 96 97 97 96 96 95 94 93 93 92 91 91 92 92 92 92 92 91 91 91 91 90 90 89 89 87 86 84 84 84 84 84 84 84 83 83 83 82 81 81 81 81 81 81 81 82 82 82 82 83 83 84 84 84 83 82 82 82 82 82 81 81 81 81 81 81 82 82 82 81 81 81 81 81 81 80 80 80 80 79 79 79 79 79 79 79 78 78 77 76 76 76 75 75 76 77 78 78 80 80 80 80 80 79 78 78 77 77 77 77 76 76 76 77 76 76 75 75 74 74 74 73 73 72 73 73 75 76 77 78 79 79 79 79 79 78 78 77 77 77 78 78 78 79 79 79 79 79 79 79 79 79 79 80 80 81 82 83 83 83 83 84 84 84 84 84 84 84 84 84 84 85 85 86 86 87 87 88 88 88 87 86 85 83 81 80 79 79 79 80 80 81 82 83 83 83 83 84 84 84 84 84 85 85 85 85 85 85 84 84 85 85 86 86 87 88 87 87 87 85 85 83 82 81 80 80 80 80 81 81 82 82 82 82 81 80 80 79 78 77 77 77 77 77 77 77 77 78 78 79 78 79 79 78 78 77 76 75 74 73 73 73 74 73 72 73 73 73 73 73 74 75 77 78 79 81 83 84 84 83 82 81 79 76 73 70 68 68 68 69 71 72 73 72 72 71 71 70 70 71 71 71 71 71 70 70 70 70 69 69 68 68 66 66 66 66 67 67 67 66 65 65 64 64 63 62 60 60 59 58 57 55 55 54 54 56 57 57 57 59 60 61 62 63 65 67 69 70 71 71 70 69 69 68 67 67 66 66 66 67 67 67 67 67 67 67 68 68 69 71 72 74 75 76 77 77 76 74 73 72 71 70 70 71 72 74 76 79 80 81 81 80 80 78 77 76 75 74 74 73 71 70 70 70 70 71 72 73 73 73 73 72 70 68 66 63 60 58 56 54 52 51 49 49 48 48 48 49 51 54 56 59 63 66 69 71 74 75 76 77 77 77 77 77 77 77 76 74 71 69 65 63 60 57 56 56 56 57 59 60 61 61 62 62 62 61 61 60 60 59 59 58 59 58 58 57 56 55 54 54 53 52 52 54 55 59 62 65 67 68 69 68 67 67 67 67 66 67 67 67 67 67 66 65 64 62 62 61 59 58 57 56 56 56 56 56 56 56 57 57 57 57 57 58 58 59 60 61 62 62 62 62 61 61 61 60 60 60 60 59 60 59 59 59 59 58 57 57 57 57 57 57 57 57 57 56 56 55 55 56 57 59 61 61 61 60 59 58 57 56 56 57 59 63 70 78 86 90 92 89 84 78 72 67 64 62 62 62 64 66 70 73 75 77 78 79 79 78 76 75 74 74 76 80 84 87 86 82 76 70 64 60 57 56 56 56 56 56 57 59 61 62 62 61 60 59 58 57 57 57 57 57 58 58 58 58 58 58 58 56 55 54 54 54 54 54 54 54 54 54 55 54 54 54 53 53 52 52 51 51 51 51 51 51 51 51 52 52 52 52 51 51 51 51 51 52 51 52 51 52 52 52 52 53 53 54 53 53 52 52 52 52 52 52 52 53 53 53 54 54 54 54 54 54 53 53 53 54 54 54 54 55 55 55 54 54 54 53 53 52 53 54 54 53 53 53 53 53 53 54 54 54 53 53 53 52 52 52 52 52 51 51 51 52 52 52 53 53 54 53 53 54 53 52 52 51 51 50 50 50 49 50 50 51 51 51 51 51 51 50 50 49 49 48 49 49 48 49 49 49 49 49 49 49 49 49 49 49 49 48 48 47 47 47 47 47 47 48 48 48 49 49 49 49 50 50 50 50 50 50 50 50 50 50 50 50 50 50 50 50 50 51 51 52 52 52 53 53 53 53 53 53 53 53 53 53 52 52 52 51 51 51 50 50 50 50 50 49 50 50 49 49 50 50 50 50 50 50 50 50 51 51 50 51 51 51 51 51 51 51 51 51 50 49 49 49 49 49 50 51 51 51 50 51 51 51 50 50 50 50 50 50 51 51 52 52 51 51 50 50 49 50
89 88 88 88 88 88 88 88 88 88 88 87 88 88 89 89 90 91 91 91 91 91 90 91 91 91 91 91 91 91 91 91 91 91 90 91 90 89 89 89 89 89 90 90 91 91 91 91 92 92 92 92 93 93 93 93 93 93 92 91 89 88 88 87 87 88 90 93 94 96 97 97 97 97 96 95 94 93 92 92 91 91 92 92 92 92 92 92 92 91 91 90 90 89 89 87 86 85 84 84 85 85 84 84 84 83 83 81 81 81 81 81 81 81 81 82 82 82 82 83 83 83 83 83 83 82 82 82 81 81 80 81 81 81 81 81 81 81 81 81 81 81 81 81 80 80 80 80 79 79 79 79 79 78 78 78 78 77 77 76 76 75 75 76 76 76 77 79 80 80 80 80 80 80 78 77 77 77 76 76 77 77 77 77 76 76 75 75 74 74 74 73 72 73 73 74 75 76 77 79 79 79 79 79 78 78 78 77 77 77 77 78 78 79 79 79 79 79 79 80 80 80 80 80 81 82 83 83 83 83 83 84 84 84 84 83 84 84 84 84 85 85 85 85 86 86 87 87 88 88 87 86 85 84 82 81 80 79 80 80 81 81 82 82 83 83 83 83 84 84 84 84 84 85 85 85 85 85 85 84 85 85 86 86 87 88 87 88 86 86 85 84 82 82 81 81 81 81 82 83 83 82 82 82 81 81 80 79 79 78 77 77 77 76 76 76 77 77 77 77 78 78 78 78 77 76 75 75 74 73 73 73 73 72 72 72 72 73 73 73 74 75 77 78 79 81 82 83 83 83 82 81 79 76 73 70 68 68 68 69 70 72 73 73 73 72 71 71 71 71 72 72 72 72 72 71 70 69 69 68 68 67 67 67 67 67 68 68 68 67 67 66 65 64 63 62 60 59 58 56 55 55 54 54 55 56 57 57 58 59 60 62 62 64 65 67 69 70 70 70 70 69 69 68 67 67 67 66 66 66 66 66 67 67 67 67 68 68 69 70 72 73 74 76 76 76 75 75 73 72 72 71 71 72 73 75 77 79 81 81 81 81 80 79 78 77 75 74 73 73 71 70 70 69 70 70 71 71 72 71 71 70 68 66 64 61 58 56 54 53 51 50 49 48 47 48 48 49 51 53 56 59 63 67 69 72 74 76 77 78 78 77 77 77 76 76 75 73 70 67 64 61 58 56 55 55 55 57 58 59 60 61 61 61 61 61 60 60 59 59 58 58 58 58 58 57 57 55 54 54 53 53 53 54 56 59 62 66 67 69 69 68 67 67 67 66 66 66 67 67 67 67 66 66 64 63 62 61 60 59 57 57 56 56 56 56 56 57 57 58 57 57 57 58 58 59 60 61 62 62 62 62 61 61 61 61 60 60 60 60 60 60 59 59 59 59 58 57 57 57 57 57 57 57 57 56 55 55 56 56 57 59 61 62 62 61 60 59 58 57 56 57 58 62 68 76 83 89 91 89 84 78 72 67 64 62 61 61 62 64 66 69 72 74 77 78 78 79 78 78 78 80 81 84 86 87 85 79 73 67 62 59 57 57 57 57 57 58 60 63 65 66 66 65 62 60 59 58 58 57 57 57 57 57 57 57 57 57 56 55 55 54 53 53 53 54 54 54 54 54 54 54 54 54 53 53 52 52 52 51 51 50 50 51 51 51 52 52 52 52 52 51 52 51 52 51 52 52 51 52 52 52 52 53 53 53 54 53 53 52 52 52 52 52 52 53 53 53 54 54 54 54 54 53 53 53 53 53 53 54 54 54 55 54 54 54 53 53 53 53 53 53 53 53 53 53 53 53 53 53 54 54 53 53 53 52 52 52 52 52 51 51 51 51 52 52 53 53 53 54 54 53 53 52 52 51 51 50 50 50 49 50 50 50 50 51 51 51 51 51 50 49 49 49 48 49 48 48 49 49 49 49 49 49 49 49 49 49 49 48 48 48 47 47 47 47 47 48 48 48 48 49 49 49 49 49 49 49 50 50 50 50 50 49 49 49 49 49 50 50 50 51 52 52 52 53 53 53 53 53 53 53 54 53 53 53 53 53 53 52 52 52 51 51 51 50 50 50 50 49 49 49 49 50 50 50 50 50 50 50 50 51 50 51 51 51 51 51 51 51 51 51 51 50 50 50 50 50 50 51 51 51 51 51 51 51 51 51 50 50 50 51 51 52 52 52 51 51 50 50 49 50
89 89 88 88 88 88 88 88 87 87 87 87 87 88 88 89 90 90 91 91 91 91 91 90 91 91 91 91 91 91 91 91 91 91 91 90 90 89 89 89 89 89 90 91 91 91 91 92 92 92 92 93 93 93 93 93 93 92 91 90 89 87 87 87 88 90 92 93 95 96 97 97 97 97 96 95 94 93 92 92 92 91 91 91 92 92 91 92 92 91 90 90 89 89 88 88 86 86 85 85 85 85 85 84 84 83 82 81 81 81 81 81 81 81 81 82 81 82 82 83 83 83 83 83 82 82 82 81 81 80 80 80 80 81 81 81 81 81 81 81 81 81 80 80 80 81 80 79 79 79 78 78 78 78 78 78 78 77 77 76 76 75 75 75 76 76 78 78 80 80 80 80 79 79 78 77 77 77 77 77 77 77 77 77 77 76 76 75 75 74 73 73 73 73 73 74 75 76 77 78 79 79 79 78 78 78 78 77 78 77 77 78 78 78 79 79 79 80 80 80 80 80 80 81 81 81 82 82 83 82 82 83 83 83 83 83 83 84 84 84 85 85 85 85 85 85 86 87 87 88 87 86 85 84 82 81 80 80 80 81 81 81 82 82 83 82 83 83 83 83 83 83 84 85 84 84 85 85 85 85 85 85 85 86 87 87 88 87 87 86 85 84 83 82 82 82 82 83 83 84 84 83 82 82 81 80 80 80 79 79 78 77 76 76 75 75 76 76 76 76 76 77 77 76 76 76 75 74 74 73 73 72 72 72 71 71 72 72 72 73 73 74 76 78 79 80 82 83 83 83 82 81 79 76 73 71 69 68 67 68 70 72 73 74 74 73 73 72 72 72 72 73 73 73 72 71 70 70 69 68 67 67 67 67 67 68 68 69 69 68 67 67 65 64 63 61 60 58 57 55 54 54 53 54 54 56 57 58 59 60 61 62 63 64 65 66 68 69 70 70 69 69 68 68 67 67 66 66 66 66 66 66 66 66 67 67 67 68 69 70 72 73 74 75 76 76 76 75 73 73 72 71 71 72 74 75 78 79 81 81 82 81 80 79 78 76 76 75 73 72 71 70 69 68 69 69 69 70 70 70 69 69 66 64 62 59 57 55 53 51 50 49 48 48 48 47 48 49 50 53 55 59 63 67 70 72 75 76 77 78 78 77 77 76 76 75 73 71 68 65 62 59 57 55 54 54 55 56 57 58 59 60 60 60 61 60 60 60 59 58 58 58 58 58 58 57 57 56 55 55 54 54 54 55 57 60 63 66 68 69 70 69 68 66 66 66 66 66 66 66 67 67 66 65 65 63 62 61 60 59 58 57 57 57 57 58 58 58 58 58 58 57 58 58 58 58 59 61 61 62 61 61 60 60 61 60 60 60 60 60 60 60 60 60 59 59 59 58 57 57 56 56 57 57 56 56 56 56 56 57 58 59 61 62 62 61 61 60 59 58 57 56 58 61 67 75 82 88 90 89 84 78 72 67 64 62 61 61 60 62 63 66 69 72 74 76 77 79 80 81 82 83 85 87 87 86 82 76 70 65 61 58 58 57 57 58 59 61 64 67 71 72 72 70 66 63 60 59 58 57 57 57 57 56 56 56 56 56 55 55 54 53 53 54 53 54 54 54 53 53 53 54 54 54 53 53 52 52 52 51 51 51 51 51 51 51 52 52 52 52 52 51 51 51 52 52 52 52 52 52 52 52 52 52 53 53 53 53 53 53 52 52 53 53 52 52 53 53 53 53 53 54 53 53 53 53 52 53 53 53 53 54 54 54 54 54 54 53 53 53 53 54 53 54 53 53 53 53 53 53 53 53 53 53 53 52 52 52 51 51 51 51 51 51 51 52 52 53 53 53 53 53 53 52 52 51 51 51 50 50 50 50 50 50 50 50 51 51 51 51 50 50 49 48 49 48 48 48 49 49 49 49 49 49 49 49 49 49 49 48 48 48 47 47 47 47 48 48 48 48 48 48 48 49 49 49 49 49 49 50 50 50 49 49 49 49 49 49 49 49 50 51 52 52 52 53 53 53 53 53 53 54 54 54 54 54 54 54 54 53 53 52 52 52 51 51 51 50 50 50 49 49 49 49 49 50 50 50 50 49 49 50 50 50 51 51 51 51 51 51 51 51 51 51 51 51 51 51 51 52 52 52 52 52 52 52 51 51 51 50 50 51 51 52 52 52 52 51 50 50 50 50
90 89 89 88 88 88 88 88 88 87 87 86 87 87 88 89 89 90 90 91 91 90 91 90 90 91 91 91 91 91 91 91 91 91 91 91 90 90 89 89 89 90 90 90 91 91 91 92 93 93 93 93 93 93 93 93 92 91 90 89 88 87 87 88 89 90 92 94 95 96 97 97 97 97 96 95 94 93 92 91 92 91 91 91 91 91 91 91 91 91 90 90 90 89 89 88 87 86 86 85 85 85 85 84 83 82 81 81 81 81 81 81 81 82 82 82 82 82 82 82 83 83 82 82 82 81 81 80 80 80 80 80 80 80 80 81 81 81 81 80 81 81 80 81 80 80 80 79 79 78 78 78 78 78 78 78 78 78 77 77 76 76 76 76 76 76 77 78 79 80 80 80 80 79 78 77 77 76 77 77 78 78 78 77 77 77 76 75 75 74 74 73 73 73 73 74 75 75 76 78 78 78 78 78 78 78 78 78 78 78 77 78 78 79 79 79 80 80 80 81 81 81 81 81 81 81 81 81 81 81 81 82 82 82 82 82 83 84 84 84 84 84 84 85 85 85 86 87 87 87 86 86 85 83 82 81 81 81 80 80 81 81 82 82 81 82 82 83 83 83 83 83 84 84 84 85 85 85 85 85 85 85 85 86 87 87 87 87 87 86 85 84 83 83 84 84 84 84 85 85 84 84 82 82 82 81 81 80 80 79 78 77 76 76 75 75 75 75 75 75 75 75 75 76 76 75 75 74 74 73 72 72 72 71 71 71 71 72 72 73 73 74 75 78 79 80 81 82 83 83 82 81 79 77 73 70 68 68 68 68 70 72 73 75 74 73 73 73 72 72 72 72 73 73 72 72 71 70 69 68 68 67 67 67 67 68 69 70 70 69 68 67 66 64 63 61 59 57 56 54 53 53 53 54 55 56 57 58 59 61 61 62 63 64 64 66 67 68 69 69 69 69 69 68 68 67 67 66 66 65 65 66 66 66 67 67 67 68 69 70 71 72 73 74 76 76 76 75 74 73 73 72 72 73 74 76 78 80 81 81 82 81 80 79 78 77 76 74 73 72 70 69 69 68 68 68 68 68 68 68 68 66 65 62 60 58 55 53 52 51 50 49 49 48 48 48 48 48 50 52 55 59 62 66 70 72 75 76 78 78 78 77 77 76 75 73 72 69 67 64 61 58 55 54 53 54 55 56 56 57 58 59 59 59 60 60 60 60 59 59 59 59 59 58 58 57 57 56 56 55 55 54 55 56 58 61 64 67 69 70 70 68 67 66 66 66 65 65 66 66 66 66 66 65 65 63 62 61 60 59 58 58 58 58 58 59 59 60 60 60 59 58 58 57 58 58 59 61 61 61 61 61 60 60 60 60 60 60 60 60 59 60 61 60 60 60 59 58 58 57 57 56 56 56 56 56 56 56 57 57 59 60 61 62 63 62 62 61 59 58 57 57 57 61 66 73 81 86 89 89 85 79 73 67 64 62 61 60 60 60 62 64 66 68 71 73 76 78 80 81 83 86 87 88 87 84 79 73 67 62 60 58 57 58 58 60 62 65 69 73 77 78 78 75 70 66 62 60 58 58 57 57 56 55 55 55 55 55 54 54 54 53 53 53 54 54 54 54 54 54 54 54 54 53 53 53 52 52 51 51 51 51 51 51 51 51 51 52 52 52 52 51 51 52 52 52 52 52 52 52 52 52 52 52 53 53 53 53 53 53 53 52 52 52 52 52 52 52 52 53 53 53 53 53 53 52 52 52 52 52 53 54 53 54 54 54 54 54 53 53 53 53 53 53 53 53 53 53 53 53 53 53 53 53 53 52 52 51 51 51 51 51 51 51 52 52 51 52 53 53 53 53 52 52 51 51 51 51 50 50 50 50 50 50 50 50 51 51 51 51 51 50 50 49 49 48 48 48 49 49 49 50 50 49 49 50 49 49 49 49 48 48 48 47 48 47 48 48 48 48 48 48 48 48 48 49 49 49 49 50 49 49 49 49 48 48 49 48 49 49 50 51 51 52 52 53 53 53 53 53 54 54 54 54 55 55 55 54 54 54 54 53 53 52 52 52 51 51 50 50 50 49 49 49 49 49 49 49 49 50 49 50 49 50 50 51 50 50 50 50 51 51 51 51 52 52 51 52 52 52 52 52 52 52 52 52 51 51 51 51 50 51 51 52 52 52 51 51 50 50 49 50
90 89 89 88 88 89 88 88 88 87 87 87 87 87 88 88 89 90 90 90 90 90 90 90 90 91 91 91 91 91 91 91 91 91 91 90 90 90 89 89 89 90 90 91 91 92 92 92 92 93 93 93 93 93 93 93 92 91 89 88 87 87 87 89 90 91 92 94 96 96 97 97 97 96 95 94 93 93 92 91 92 91 91 91 90 90 91 91 91 91 90 90 89 89 88 88 88 87 86 86 86 85 84 84 83 82 81 81 81 81 82 82 81 82 82 82 82 82 82 82 82 82 82 82 81 81 81 80 80 80 80 80 80 80 80 80 81 81 81 80 80 80 80 80 80 80 79 79 78 78 78 77 78 78 78 78 77 77 77 77 76 76 76 77 77 77 78 78 79 79 80 80 79 78 77 77 76 76 76 77 78 78 78 78 78 77 77 76 75 74 74 74 73 73 73 74 74 75 76 77 78 77 78 78 77 77 78 78 78 78 78 78 79 79 80 80 80 81 81 82 82 82 82 81 81 81 80 80 80 80 81 81 82 82 82 82 82 83 84 83 84 84 84 84 84 85 86 86 86 87 86 85 84 83 81 81 81 80 80 80 81 81 81 81 81 81 82 82 83 83 83 83 84 84 85 84 85 85 86 85 85 85 85 86 87 87 87 87 87 86 85 85 84 84 85 85 86 86 86 85 85 83 82 82 81 81 81 81 81 80 79 78 77 76 75 75 74 74 74 74 73 74 75 75 75 75 74 74 73 73 72 72 72 71 71 71 71 72 72 72 73 74 75 77 78 80 81 82 83 83 82 80 79 76 73 70 69 67 68 68 70 72 74 75 75 74 74 73 72 71 71 72 72 72 72 72 71 70 69 68 67 67 67 67 68 69 70 70 70 70 69 68 67 65 62 60 58 56 55 53 52 52 53 54 55 56 57 58 59 61 62 63 63 64 64 66 67 68 68 69 69 69 69 68 67 67 66 66 65 65 65 65 66 66 66 66 67 67 68 69 71 72 73 74 75 75 75 75 75 74 74 73 74 74 75 77 79 80 81 82 82 81 80 79 78 77 76 74 73 71 70 69 67 67 66 66 66 66 67 66 66 65 63 61 59 57 55 53 52 51 50 50 49 49 48 48 48 49 50 52 55 58 61 65 69 72 75 77 78 78 78 78 77 76 74 73 71 68 65 62 59 57 54 53 53 54 54 55 56 56 57 58 58 59 59 59 59 59 59 59 59 59 59 59 58 58 57 57 56 55 55 55 55 56 59 61 64 67 69 70 69 68 67 65 64 65 64 64 65 65 66 66 66 65 65 64 62 61 60 59 59 59 59 59 60 60 61 61 61 60 60 58 58 58 57 58 59 60 61 61 61 60 60 59 59 59 60 60 60 60 60 60 61 61 61 60 60 59 58 58 57 57 56 56 56 56 56 57 58 58 59 61 62 63 63 63 63 62 60 59 57 57 57 59 64 71 78 85 88 89 86 80 74 69 65 62 61 60 61 60 61 62 64 66 68 70 73 75 78 81 83 85 87 86 84 80 75 70 65 60 58 57 57 58 60 62 65 69 74 79 83 84 83 80 75 70 65 62 60 59 57 56 56 55 54 54 54 54 54 53 53 53 54 54 55 55 55 55 54 54 54 54 54 53 53 53 52 52 51 51 51 51 50 51 51 51 51 51 52 52 51 51 51 51 51 51 52 52 52 52 52 52 52 52 53 53 53 53 53 53 53 53 53 52 52 52 52 52 52 52 52 53 53 53 52 52 52 52 52 52 52 53 53 54 54 54 54 53 53 53 53 54 54 54 54 53 53 53 53 53 53 53 53 53 53 52 52 52 51 51 50 50 51 51 51 51 51 52 52 52 52 52 52 51 51 51 51 50 50 50 50 50 50 50 50 50 51 51 51 51 51 50 49 49 49 49 49 49 49 49 50 50 50 50 49 50 50 50 50 49 48 48 48 48 48 47 48 48 48 48 48 48 47 48 48 48 48 49 49 49 49 49 49 48 48 48 48 48 48 49 49 50 51 52 52 53 53 53 53 53 54 54 55 55 55 55 55 55 54 54 54 54 54 53 53 52 51 51 51 50 50 49 49 49 49 49 49 49 49 49 49 49 49 49 50 50 49 50 49 50 50 50 51 51 51 51 51 51 52 52 52 52 52 51 52 51 51 51 50 50 50 50 51 51 51 51 51 50 49 49 49 49
89 89 89 89 89 89 88 88 88 87 87 87 87 87 88 88 89 90 90 90 90 91 91 91 91 91 91 92 91 91 91 91 91 91 91 90 90 90 89 89 89 90 91 91 91 92 92 92 92 93 93 93 93 92 93 92 91 90 89 88 87 88 88 89 91 92 93 95 95 96 96 97 96 95 95 94 94 93 92 92 91 91 91 90 90 90 90 90 90 90 89 90 89 89 89 88 89 88 87 87 86 85 84 83 83 82 81 81 81 82 82 81 81 82 82 82 82 82 81 81 82 82 82 82 82 81 81 81 80 80 80 80 80 80 80 81 80 80 80 80 80 79 80 80 80 80 79 79 78 78 78 78 77 77 77 77 77 77 77 77 77 77 77 77 77 77 77 78 79 79 79 79 79 78 77 77 76 76 77 77 78 78 78 78 78 77 77 76 75 75 74 74 74 74 73 74 74 75 76 76 77 77 77 77 77 78 78 78 78 78 78 79 79 80 80 80 81 82 82 82 82 82 82 81 81 80 80 79 79 79 80 81 81 81 82 82 82 83 83 83 83 83 83 84 84 84 85 85 86 85 85 84 83 83 81 81 81 81 81 81 80 81 81 81 81 82 82 82 83 83 83 83 83 84 84 85 85 85 86 86 85 85 85 86 86 86 87 87 87 86 86 85 85 85 86 86 87 88 87 86 85 84 83 82 82 82 81 82 82 81 80 78 77 76 75 74 74 73 73 72 73 73 74 74 74 75 74 74 73 73 72 72 71 71 71 72 72 72 73 73 73 74 75 77 79 80 81 82 83 82 81 80 78 75 72 70 68 67 67 68 70 72 74 75 75 74 74 73 71 71 70 71 71 72 72 72 71 70 70 68 68 67 68 68 68 70 71 71 71 71 70 69 67 64 62 59 57 55 54 53 52 52 53 54 55 56 57 58 60 61 62 63 63 63 64 65 66 68 68 69 69 69 68 68 67 66 66 65 65 65 65 65 66 66 66 66 66 67 68 68 69 71 72 73 75 75 76 75 75 74 74 74 74 75 77 78 80 80 82 82 82 82 81 80 79 77 76 74 73 71 69 68 66 65 64 64 64 64 65 65 64 64 62 60 58 56 54 53 52 51 51 50 50 50 49 49 49 49 50 52 54 57 61 64 68 71 74 76 78 79 79 78 77 76 74 72 69 66 63 60 58 55 53 53 52 53 53 54 55 55 56 57 57 57 58 58 59 59 59 59 59 59 59 59 59 58 58 57 56 56 56 55 56 57 59 62 65 68 69 70 69 67 66 64 64 63 63 63 64 65 66 66 66 65 65 63 62 61 60 59 60 60 60 61 61 62 62 62 62 61 60 59 58 58 58 58 59 60 61 61 61 60 59 58 58 59 59 60 60 60 60 61 62 62 61 61 60 59 58 58 57 57 56 56 56 56 57 57 58 59 60 61 62 64 64 64 63 62 61 60 58 57 57 58 62 68 75 82 87 88 87 83 77 71 67 63 62 61 61 61 61 62 63 64 65 67 70 73 75 78 81 83 84 83 81 77 72 66 62 59 57 57 57 59 61 65 69 74 80 84 87 89 88 85 80 74 69 64 62 59 58 57 56 55 54 54 54 53 53 53 53 53 54 54 55 55 55 55 55 54 54 54 54 53 53 53 52 51 51 50 51 50 50 50 51 51 51 52 52 52 51 51 51 51 51 51 51 52 52 52 52 52 52 52 53 53 53 53 53 53 53 53 53 53 52 52 51 51 51 52 52 52 53 53 52 52 52 52 51 52 52 52 53 53 54 54 54 53 53 53 53 54 54 54 54 54 53 53 53 53 53 53 53 53 53 53 52 52 51 51 50 51 51 51 51 51 51 50 51 51 52 51 51 51 51 51 51 51 51 50 50 50 50 50 50 50 51 51 50 51 50 50 49 49 49 49 49 49 49 50 50 50 50 50 50 49 50 50 49 49 49 49 49 48 48 48 48 48 48 48 47 48 48 47 47 48 48 48 48 48 49 49 49 48 48 48 48 48 48 48 49 50 51 52 52 52 53 52 53 53 54 54 55 55 55 55 55 55 54 54 54 54 54 54 54 53 52 51 51 50 50 49 49 49 49 49 49 49 49 49 48 48 48 48 48 48 48 48 48 48 49 50 50 51 51 51 51 51 51 51 51 52 51 51 51 51 50 50 50 50 50 50 50 50 51 50 50 49 49 48 48 49
89 89 89 88 89 89 89 89 88 88 87 87 87 88 88 89 89 90 90 90 90 90 90 91 91 91 91 91 91 92 91 91 91 91 91 91 91 90 90 90 90 90 91 91 92 92 93 93 93 93 93 93 93 93 92 92 91 90 89 88 88 88 89 90 91 93 94 95 95 95 96 96 96 95 94 94 93 93 92 92 91 91 90 90 89 89 89 89 89 89 89 89 89 89 89 89 88 88 88 88 87 86 85 84 83 82 81 81 82 82 82 82 81 82 82 81 81 81 81 81 81 82 82 82 81 81 81 81 81 81 80 80 80 80 80 80 80 80 80 79 79 79 80 79 80 79 79 79 78 78 78 78 77 77 77 77 77 77 77 78 78 78 78 78 77 78 77 77 78 78 78 78 78 77 77 76 76 76 76 77 77 77 78 78 77 77 76 76 75 75 75 74 74 74 74 74 75 75 75 76 76 77 77 77 77 78 78 78 78 78 78 79 79 80 80 81 81 81 82 82 82 82 82 81 80 80 79 79 78 78 79 80 81 81 82 82 82 82 82 82 82 83 83 83 84 85 85 85 85 85 84 83 83 82 81 81 81 81 80 80 81 80 81 81 81 82 82 83 83 83 83 83 83 83 83 84 85 85 86 86 85 85 85 85 86 86 87 87 86 86 86 86 86 86 87 87 88 89 88 87 86 85 84 83 81 81 82 82 82 81 80 79 78 76 76 74 74 73 72 72 72 72 73 74 74 74 74 74 73 72 72 72 71 71 71 72 72 73 73 73 74 75 75 77 79 81 82 82 82 82 81 79 77 74 72 70 68 68 68 69 70 72 73 74 74 74 73 72 71 70 69 69 69 70 71 71 71 70 70 69 68 67 67 68 69 70 71 72 71 71 70 68 66 64 62 58 56 54 53 52 52 52 53 54 55 56 57 58 60 61 62 63 63 63 64 64 65 67 68 68 69 68 68 67 67 67 66 66 65 65 65 65 65 66 66 66 66 67 67 67 68 70 72 73 74 76 76 76 76 75 75 75 75 76 78 79 80 81 82 83 83 82 82 80 79 78 76 74 72 70 69 67 65 63 63 62 62 62 63 62 62 62 61 59 57 55 55 53 53 52 52 52 51 51 50 49 49 50 50 52 54 56 60 63 66 70 73 76 78 79 80 79 77 75 73 71 68 65 62 59 56 54 53 52 52 52 53 53 54 54 55 55 56 57 57 58 58 59 58 58 59 59 59 59 59 59 58 57 57 56 56 56 56 57 59 62 65 67 69 69 68 67 66 64 63 63 63 63 64 64 65 65 65 65 64 64 62 61 60 60 60 61 61 62 62 63 63 64 63 62 61 59 59 58 58 58 59 60 61 61 61 60 59 58 57 58 59 60 60 60 61 62 62 62 62 62 61 60 59 58 58 57 57 56 56 57 57 58 59 60 61 62 63 64 64 64 63 62 62 60 59 58 57 57 60 65 72 79 85 88 88 85 80 75 70 65 63 62 61 61 61 62 62 63 63 64 67 69 72 75 77 79 80 78 76 72 68 63 59 57 55 56 57 60 64 68 73 79 84 88 91 92 91 88 84 77 72 67 64 62 59 57 56 55 54 54 54 53 53 53 53 53 54 54 55 56 56 55 54 53 53 53 53 53 53 53 52 51 51 50 51 50 50 50 50 50 51 51 52 51 51 52 51 51 51 51 51 52 52 52 52 52 52 52 52 53 53 53 53 53 53 53 53 52 52 52 51 51 51 51 51 52 52 52 52 52 52 52 51 51 51 52 52 53 53 54 54 53 54 53 53 53 53 54 54 54 53 53 53 53 53 52 52 53 52 52 52 52 51 51 51 51 51 51 50 50 50 50 50 51 51 51 51 51 51 51 51 51 51 50 50 50 50 50 50 50 50 50 50 50 50 49 49 49 49 49 49 49 49 50 49 50 50 49 50 50 50 50 50 50 50 50 49 49 48 48 48 48 48 48 48 48 47 47 47 47 47 47 48 48 48 48 48 48 48 48 48 47 48 49 49 50 51 52 52 52 52 52 53 53 54 55 55 56 56 55 55 55 54 54 54 54 54 54 54 54 53 52 51 51 50 49 49 49 48 48 48 48 49 49 49 48 48 48 48 47 46 46 46 47 48 49 49 51 50 51 50 50 50 51 51 51 50 50 50 50 50 49 49 49 49 49 50 50 50 50 49 49 48 48 48 48
89 89 89 89 89 89 89 88 88 88 87 87 87 88 88 89 89 89 89 90 90 91 90 91 91 92 92 92 92 92 91 92 91 92 92 91 91 91 91 91 91 91 91 92 92 93 93 93 93 93 93 93 93 92 92 91 91 89 88 88 88 88 89 91 92 93 94 95 96 96 96 95 95 95 94 94 93 93 93 92 91 91 90 89 88 88 88 88 88 89 89 89 88 89 89 89 89 89 89 88 87 87 85 83 82 82 81 81 82 82 82 82 82 81 81 81 81 81 81 81 81 80 81 81 81 82 81 81 81 81 80 80 80 80 80 80 80 80 80 79 80 80 79 79 79 79 79 79 78 78 78 78 78 77 77 77 77 77 77 78 79 78 78 78 78 78 77 77 77 77 77 78 77 77 76 76 76 76 76 77 77 77 77 77 77 76 76 76 75 75 75 75 75 74 74 75 75 75 75 75 76 76 77 77 78 78 78 78 79 78 79 79 79 80 80 81 81 81 81 82 82 82 82 81 80 79 79 78 78 78 78 79 81 82 82 82 81 81 82 82 82 82 83 83 84 84 85 85 84 84 83 82 82 81 81 81 80 81 81 81 81 80 81 81 81 82 82 83 83 83 83 83 83 82 82 83 84 85 85 86 85 85 85 85 85 86 86 86 86 86 87 86 86 86 87 88 89 90 90 89 88 86 85 83 82 82 82 82 82 81 80 79 78 77 76 75 74 72 72 72 71 71 72 73 74 74 74 73 73 72 72 72 71 72 72 72 72 74 74 75 75 75 76 78 80 81 82 82 82 81 79 78 76 73 71 69 68 68 68 69 70 71 73 73 74 73 72 70 69 68 67 67 67 68 70 71 70 70 71 69 68 67 68 68 70 70 72 72 72 72 71 68 66 64 61 58 56 54 52 51 51 52 53 54 55 56 58 59 61 62 63 63 63 63 64 65 66 67 68 68 68 68 67 67 67 66 66 66 65 65 65 64 65 65 65 66 66 66 66 67 68 69 71 73 74 76 77 77 77 76 75 76 76 77 78 79 80 81 82 83 83 83 82 80 79 78 76 73 71 69 67 65 63 62 60 60 60 60 60 61 60 60 60 59 57 56 55 54 53 53 53 53 53 52 51 50 50 50 51 52 54 56 59 61 65 69 72 75 77 79 80 79 78 75 73 70 67 63 60 57 55 53 52 51 51 51 52 52 52 53 54 54 55 55 56 57 57 58 58 58 59 59 59 59 59 59 58 58 57 57 56 56 57 57 59 62 64 67 68 68 68 67 65 63 63 62 62 62 63 64 65 65 64 64 64 63 62 61 61 61 61 61 62 62 63 64 65 65 64 63 62 60 59 58 58 58 59 60 61 62 61 60 59 58 57 58 59 60 61 61 62 62 63 63 63 62 62 61 60 59 58 58 58 57 57 57 58 58 59 61 62 63 64 64 64 64 64 63 62 61 59 58 56 57 59 63 69 76 82 86 89 88 85 80 74 70 65 63 62 61 61 62 62 62 62 63 64 66 68 71 73 74 74 73 70 68 64 59 57 55 54 55 57 61 66 72 78 84 88 91 94 94 94 91 87 81 76 71 67 65 62 60 57 56 55 54 54 53 53 53 53 53 54 54 55 56 56 55 54 53 53 53 52 53 52 52 52 51 51 51 50 50 50 50 50 51 51 51 51 51 51 51 51 51 51 51 51 51 52 52 52 52 52 52 52 53 53 53 53 54 54 53 53 53 52 52 51 51 51 51 51 52 52 52 52 52 52 52 51 51 51 52 52 52 53 53 54 53 53 53 53 53 53 54 54 54 54 53 53 53 52 51 52 52 52 52 52 51 51 51 51 51 51 51 50 50 50 50 50 50 51 51 51 51 51 51 51 51 51 51 51 51 51 50 50 50 50 50 50 50 50 49 49 49 49 49 49 50 49 49 49 50 49 49 50 50 50 50 50 50 51 51 50 49 49 49 48 48 48 48 48 48 48 47 48 48 47 47 48 48 48 49 48 48 48 48 48 48 48 49 50 50 51 51 52 52 52 52 52 53 54 55 55 55 55 55 54 54 54 54 54 54 54 54 54 54 53 52 51 51 50 49 49 49 49 48 48 48 49 48 49 48 48 48 47 46 46 45 46 46 48 48 49 50 50 50 50 49 50 49 49 50 49 49 49 49 49 48 48 48 48 48 49 49 49 49 48 48 47 48 48 49
89 89 89 89 89 89 89 89 89 88 88 88 88 88 89 89 89 89 89 90 90 90 91 91 91 92 92 92 92 92 92 92 92 92 92 92 91 91 91 91 91 91 92 92 93 93 93 92 93 93 93 93 92 92 91 91 90 89 89 88 88 89 90 91 92 94 95 95 95 95 95 95 94 94 94 94 93 93 93 92 92 91 90 89 88 88 87 87 88 88 89 88 88 88 89 89 89 89 89 88 88 87 85 83 82 81 81 81 82 82 82 82 82 81 81 81 80 80 80 81 81 81 81 81 82 82 81 81 81 81 81 81 80 80 80 80 80 80 80 79 79 79 79 79 79 79 78 79 78 78 78 77 77 77 77 77 76 77 77 78 78 78 79 79 78 78 77 77 76 76 77 77 77 77 76 76 76 76 76 76 77 77 77 77 76 76 75 75 75 75 75 75 75 75 75 75 75 75 75 75 76 76 77 78 78 78 79 79 79 79 79 79 80 80 80 80 81 81 82 82 82 82 82 81 80 79 79 78 78 78 78 79 81 82 82 82 81 81 81 81 81 82 82 83 83 84 84 84 84 83 83 82 81 81 81 80 81 81 81 81 81 80 81 81 81 82 83 83 83 83 83 83 82 82 82 82 84 84 85 85 85 85 85 85 85 85 86 86 86 87 87 86 86 87 88 89 89 90 90 90 89 87 86 84 83 83 83 82 82 81 80 79 78 77 76 75 74 72 72 71 71 70 70 72 73 73 74 73 72 72 71 71 72 72 72 73 73 74 75 75 76 76 77 79 80 81 81 82 81 80 78 76 74 72 70 69 68 68 68 68 70 71 72 73 72 71 70 69 67 66 65 65 66 67 69 70 70 71 71 70 69 68 69 69 70 71 73 74 73 72 71 69 67 64 60 58 55 53 52 51 52 52 53 55 55 57 59 60 62 63 63 63 64 64 64 65 66 67 67 67 68 67 67 67 66 66 66 66 65 65 65 64 64 65 65 65 65 65 65 66 67 69 71 73 75 76 77 78 78 77 77 77 77 78 79 80 81 82 83 83 83 83 82 80 79 77 75 73 70 68 65 63 61 60 59 58 58 58 58 59 59 59 59 58 57 57 56 54 54 54 54 54 54 53 52 51 51 51 51 52 53 55 57 60 64 67 71 74 77 79 80 80 78 75 73 70 66 62 59 56 54 52 51 51 51 51 51 51 51 52 53 54 54 55 55 56 57 57 58 58 58 58 59 59 59 59 59 58 58 57 57 57 57 58 60 62 64 66 67 68 67 66 65 64 63 62 61 62 62 63 64 64 64 64 64 63 62 62 62 61 62 61 62 63 63 64 65 65 65 63 62 61 60 59 58 58 59 60 61 61 61 60 59 57 57 57 59 60 61 62 63 63 64 64 64 63 62 61 61 60 59 59 58 58 58 58 58 59 60 62 63 64 64 65 65 65 64 63 62 61 59 58 56 56 58 61 66 72 79 84 88 90 88 85 80 75 70 66 64 63 63 63 62 62 62 62 62 63 64 66 68 69 69 68 66 63 60 57 55 53 53 56 59 64 70 76 82 88 91 94 95 96 95 93 89 85 79 75 72 69 66 63 60 57 56 55 54 54 53 53 53 53 54 54 55 56 55 54 54 53 53 52 52 52 52 52 52 51 51 51 50 50 50 50 50 50 50 51 51 51 51 51 51 51 51 51 51 51 52 52 51 52 52 52 52 52 53 52 53 53 53 53 53 53 53 52 52 51 51 51 51 52 52 52 52 52 52 52 51 51 51 51 52 52 53 53 53 53 53 53 53 53 53 53 54 54 54 53 53 52 52 51 51 51 51 51 51 51 51 51 51 51 51 50 51 50 50 49 50 50 50 51 51 51 51 51 51 51 51 51 51 51 51 50 50 50 50 50 50 49 49 49 49 49 49 49 49 49 49 48 48 48 48 48 49 49 50 50 51 51 51 51 50 50 49 50 49 49 49 49 49 48 48 48 48 48 48 48 48 48 48 48 48 48 48 48 48 48 49 49 50 50 50 51 51 51 51 51 52 52 54 55 55 55 55 55 54 54 54 54 54 54 54 54 53 54 54 52 52 51 51 50 49 49 49 49 49 48 49 49 48 49 48 48 47 46 45 44 45 46 47 48 49 49 49 49 48 48 49 49 49 49 49 49 49 48 48 47 48 47 47 47 48 48 48 48 47 47 47 47 48 48
89 89 89 89 89 89 89 89 89 89 88 88 88 89 89 89 89 89 89 89 90 91 90 91 91 91 92 92 92 92 92 92 92 92 92 92 92 92 92 92 92 92 92 93 93 93 93 93 93 93 93 93 92 91 91 91 90 89 89 88 89 89 90 92 93 94 95 95 95 94 94 94 94 94 94 93 93 93 93 92 91 91 89 88 88 87 87 87 87 88 88 88 88 88 88 88 89 89 89 89 88 87 85 83 82 81 81 81 81 82 82 82 82 81 81 81 81 80 80 81 81 81 82 82 82 82 82 81 81 81 81 81 80 80 81 80 80 80 80 79 79 79 79 79 79 79 79 79 79 78 78 78 77 77 77 76 76 77 77 78 78 79 79 79 78 78 77 77 76 76 76 76 76 76 76 76 76 76 76 76 76 76 76 76 76 75 75 75 75 75 75 75 75 75 75 75 75 75 75 75 76 77 78 78 79 79 79 79 79 79 79 79 79 80 80 81 81 81 81 82 82 82 82 81 80 79 79 78 78 78 79 80 81 81 81 80 80 80 80 80 80 81 81 82 83 84 84 84 83 83 82 81 81 81 81 81 81 81 81 81 81 81 81 82 82 82 82 83 84 83 83 83 82 81 81 82 82 84 84 85 85 85 85 85 85 85 85 86 86 87 86 86 86 87 87 89 90 91 91 90 90 88 87 85 84 84 83 83 82 82 81 80 79 77 76 75 74 72 71 70 69 69 70 71 72 73 73 73 72 72 71 71 72 72 73 73 74 74 75 76 77 77 78 79 80 81 81 81 80 79 77 75 73 71 69 68 68 67 68 68 69 71 72 72 71 70 68 67 65 64 64 64 64 66 68 70 71 72 72 71 70 69 70 70 71 72 74 75 74 73 71 69 66 63 60 57 55 53 51 51 52 52 53 54 56 58 60 61 63 64 64 64 64 64 65 65 66 67 67 67 67 67 66 66 66 65 65 65 65 64 64 64 64 65 65 65 65 65 65 66 67 69 71 73 75 77 79 79 79 78 78 78 78 79 79 80 81 82 82 83 83 82 81 80 78 77 75 72 69 67 64 62 59 58 57 56 56 56 56 57 58 58 59 58 57 57 56 56 56 55 55 55 55 54 53 53 52 52 52 52 53 55 57 60 63 66 70 74 77 79 80 80 78 75 73 69 66 62 58 56 53 52 51 50 50 50 50 50 51 52 52 53 54 54 54 55 56 56 57 57 58 58 59 59 60 59 59 59 58 58 57 57 57 58 60 62 64 66 67 67 67 66 65 64 63 62 62 62 62 62 63 63 63 63 63 63 62 62 62 62 62 62 63 63 64 65 65 65 65 64 63 62 60 59 58 58 59 60 60 61 61 60 58 57 57 57 59 60 62 63 64 65 65 65 65 64 63 62 61 60 60 59 59 59 59 60 60 60 61 62 63 64 65 65 65 65 64 64 63 61 60 58 57 56 57 60 64 69 75 81 86 89 90 89 85 80 75 71 67 66 65 64 63 62 61 60 60 60 61 62 63 64 65 64 62 59 57 55 53 53 54 56 61 67 73 80 86 91 94 96 96 96 96 94 92 88 83 80 77 74 71 68 64 61 58 56 55 53 53 53 53 53 54 54 54 55 55 54 53 53 52 52 51 51 51 52 52 52 51 51 51 50 50 50 50 50 51 51 51 51 51 52 52 51 52 51 51 51 51 51 52 52 52 52 52 52 52 52 52 53 53 53 53 53 53 53 52 52 51 51 51 51 52 52 52 52 52 52 51 51 51 51 51 51 52 53 53 53 53 53 53 52 52 53 53 53 54 53 53 52 52 51 51 51 50 50 51 51 51 51 51 51 51 50 50 50 50 50 50 50 50 50 51 51 51 51 51 51 51 51 51 51 51 50 50 50 50 50 49 49 49 49 49 48 49 48 48 48 48 47 48 47 48 48 48 49 49 50 50 51 51 51 51 51 50 50 50 49 49 49 49 49 49 49 48 48 48 48 48 48 48 49 48 48 48 48 48 48 49 49 49 49 50 50 50 50 50 51 51 52 53 54 55 55 54 54 53 53 54 53 53 53 53 53 54 53 53 52 52 51 51 50 50 49 49 49 49 49 49 49 49 49 49 48 47 46 45 45 45 46 48 48 49 49 48 48 47 47 48 48 48 47 48 48 48 48 47 47 46 46 46 47 47 48 48 48 47 47 47 48 48 48
89 89 89 89 89 89 90 89 89 89 89 89 89 89 89 89 89 89 89 89 90 90 90 91 91 92 92 92 92 92 92 92 92 93 93 93 93 92 93 92 92 92 93 93 93 94 93 93 93 93 93 93 91 91 91 90 90 89 88 88 89 90 90 92 93 94 95 95 94 94 93 93 93 93 93 93 93 93 93 92 91 90 89 88 87 87 87 87 88 87 88 88 88 88 88 88 88 89 89 89 88 86 85 83 82 81 81 81 81 82 82 82 81 81 81 80 80 80 80 80 81 81 81 81 82 82 81 81 81 81 81 81 81 80 80 80 80 80 79 79 79 79 79 79 79 79 79 78 78 78 78 77 77 77 77 77 77 77 77 78 78 78 79 79 78 78 77 77 76 75 75 76 76 76 76 76 76 76 76 76 76 76 76 76 76 75 75 75 75 75 75 75 75 76 75 76 76 75 75 75 76 77 78 78 79 79 80 79 79 79 79 79 79 80 80 81 81 81 81 81 82 82 82 82 81 79 79 79 79 79 79 79 80 81 81 80 80 79 79 79 79 80 81 82 83 84 84 84 83 82 81 82 81 81 81 81 81 81 81 81 81 81 81 81 82 82 82 83 84 83 83 82 81 81 80 81 82 83 84 85 85 85 85 85 85 85 85 86 86 86 86 86 86 87 87 89 90 91 91 91 90 89 87 86 85 84 83 83 82 81 81 80 79 78 76 75 73 72 70 69 68 68 69 70 71 72 72 72 72 72 71 72 71 72 73 73 73 74 75 76 77 77 78 79 80 81 81 81 80 78 76 74 71 70 69 68 67 67 67 68 69 70 71 71 70 68 66 65 64 63 62 62 63 65 67 70 71 72 73 73 72 71 70 71 72 74 75 76 75 73 71 69 67 63 59 56 54 52 51 51 51 52 53 55 57 59 61 63 64 64 65 65 65 65 65 66 66 67 67 67 67 66 66 66 65 65 65 65 65 64 64 64 64 64 65 65 65 65 65 66 68 69 71 74 76 78 79 80 80 79 79 79 79 80 80 81 82 82 83 83 82 82 81 80 78 76 74 71 68 65 63 60 58 57 55 55 54 54 55 55 56 58 58 58 58 58 57 57 57 57 57 57 56 55 54 54 53 52 52 52 53 54 56 58 61 65 69 73 76 79 80 80 78 76 73 69 65 62 58 55 54 52 51 50 50 50 50 50 51 52 52 53 53 54 54 55 56 56 57 57 57 58 58 59 59 60 59 59 58 58 57 57 57 58 60 62 64 65 66 67 67 66 66 64 63 62 62 62 61 61 61 61 62 62 62 62 62 62 63 64 64 64 64 64 64 65 66 66 65 64 63 62 61 60 58 58 59 60 60 61 61 60 59 57 57 58 59 61 62 64 66 66 66 66 65 64 63 62 61 61 60 60 60 60 60 61 61 61 62 62 63 64 65 65 65 65 65 64 63 61 60 59 57 57 57 59 62 66 72 78 83 87 90 90 89 86 81 76 72 69 67 66 65 64 62 61 59 59 58 58 59 60 60 60 58 57 55 53 53 53 55 59 64 71 77 84 89 93 95 96 96 96 95 94 93 89 86 83 81 79 76 73 69 65 62 58 56 54 53 53 52 53 53 54 54 54 54 54 53 52 52 51 51 51 51 51 51 52 51 51 51 51 50 50 50 50 50 51 51 52 52 52 52 52 51 51 51 51 50 51 51 51 52 52 52 52 52 52 53 53 53 53 53 53 53 53 52 52 52 52 52 52 52 52 52 52 52 52 51 51 51 51 51 51 52 53 53 53 53 53 52 52 52 52 53 53 53 53 53 53 52 51 51 51 51 50 50 51 51 51 51 51 51 51 50 50 50 50 50 50 50 51 51 51 51 51 51 51 51 51 51 51 51 51 51 50 50 50 49 49 49 49 48 48 48 48 47 47 47 47 47 46 47 47 48 48 48 49 50 50 51 51 51 51 51 51 50 50 50 50 50 50 49 49 49 49 48 49 48 48 48 49 48 48 48 48 48 48 49 49 49 49 49 49 49 49 50 50 51 52 53 54 54 54 54 54 53 53 53 53 53 53 53 53 53 53 53 52 52 51 51 50 50 50 49 49 49 49 50 50 50 50 49 49 48 47 46 46 46 47 48 48 49 48 48 48 46 46 47 47 48 47 48 48 48 48 47 46 46 45 46 46 46 47 48 48 48 48 48 48 48 48
90 90 90 90 90 90 90 90 90 90 89 89 90 89 89 89 89 89 89 89 89 90 90 91 91 91 91 92 92 92 92 93 93 93 94 94 93 93 93 93 93 93 93 93 94 94 93 93 93 93 93 92 91 91 90 90 90 89 89 89 89 90 91 92 94 94 95 94 93 93 93 92 93 93 94 94 93 93 93 92 91 90 88 87 87 87 87 87 87 87 87 87 87 87 87 87 87 88 88 88 88 86 85 83 82 81 81 81 82 82 82 82 81 81 80 80 80 80 80 80 81 81 81 81 81 81 81 81 81 81 81 80 80 80 80 80 80 80 79 79 79 79 78 79 79 79 79 78 78 78 78 77 77 77 77 77 77 77 77 78 78 79 79 79 78 78 78 77 76 76 75 75 76 76 76 76 77 77 77 76 76 76 76 76 75 76 75 75 75 75 75 75 76 76 76 76 76 76 76 76 76 78 78 79 79 79 80 80 79 79 79 79 80 80 81 80 81 81 81 81 82 82 82 82 81 80 79 79 80 79 79 80 80 80 79 79 79 79 78 78 79 79 81 82 83 83 83 83 83 82 82 81 81 81 81 82 81 81 81 81 80 81 81 82 82 83 83 83 83 83 83 82 81 80 80 81 82 83 83 84 84 85 85 85 85 85 85 86 86 86 86 86 86 87 88 89 91 92 92 91 91 90 88 87 86 85 84 83 82 81 81 80 79 77 76 74 72 70 69 67 67 67 68 69 70 71 72 72 72 72 71 71 71 71 72 72 73 74 74 76 77 78 79 79 80 80 80 80 79 78 75 73 71 69 68 67 67 67 66 68 68 69 70 70 69 67 65 64 62 61 61 61 62 64 67 69 71 73 74 74 73 72 72 73 73 75 76 76 76 74 72 70 67 63 59 56 54 52 51 51 51 51 53 56 58 60 63 64 65 66 66 66 65 65 66 66 67 67 67 67 67 67 66 65 65 65 65 65 65 64 65 64 64 64 65 65 65 66 66 67 69 70 72 75 77 79 80 81 81 81 81 81 81 81 81 81 82 82 82 82 82 81 80 79 77 75 73 70 67 64 61 59 57 56 54 54 53 53 53 54 55 57 58 59 59 59 59 59 59 58 58 58 58 57 56 55 54 53 53 53 53 54 55 58 61 64 68 72 76 79 81 80 79 76 73 69 66 62 58 56 54 52 51 50 50 50 50 50 51 51 52 53 53 54 54 54 55 56 56 56 57 57 58 58 59 59 59 59 58 58 57 57 57 58 60 62 63 65 66 66 66 66 66 65 64 63 62 61 61 61 60 60 60 60 60 60 61 62 63 64 65 65 65 65 65 65 65 65 65 64 63 62 61 60 59 59 59 59 60 61 61 60 59 58 58 58 60 62 64 66 67 67 67 66 66 65 64 63 62 61 61 61 61 61 61 61 61 62 63 63 64 64 65 65 65 65 65 64 63 62 61 60 59 58 58 59 61 65 69 74 79 83 87 89 90 89 86 82 78 75 71 69 67 66 64 61 59 58 57 57 57 57 57 56 56 54 53 53 52 54 57 62 68 75 82 88 92 94 95 95 94 94 92 92 91 89 87 85 83 82 80 78 74 70 66 62 58 56 54 53 53 53 53 53 53 54 54 54 53 52 52 51 51 51 51 51 51 51 52 51 51 51 50 50 50 50 50 50 51 52 52 52 52 52 51 51 50 51 51 51 51 51 52 52 52 52 52 52 52 52 53 53 53 53 53 53 53 52 52 52 52 52 52 52 52 52 52 52 52 52 52 51 51 52 52 52 53 53 53 52 52 51 52 52 52 52 53 53 53 53 53 52 51 51 50 50 50 50 51 51 51 51 51 50 50 50 50 50 50 50 50 50 51 51 51 50 50 50 51 51 51 51 51 51 51 51 50 50 49 49 48 48 48 48 48 47 46 46 46 46 46 46 46 46 47 47 48 48 49 49 50 51 51 51 51 51 50 51 50 50 50 50 50 49 50 49 49 49 48 49 49 48 48 48 48 48 49 49 49 49 49 49 49 49 49 49 49 50 51 51 52 53 53 53 53 53 53 52 52 52 52 52 53 52 53 53 52 52 52 51 51 51 50 50 50 50 50 50 50 51 50 50 50 49 49 48 47 47 48 48 48 48 49 48 48 47 47 46 47 47 48 48 48 48 48 48 47 47 46 46 46 46 47 47 48 48 48 48 48 48 47 48
90 90 90 90 90 90 90 90 90 89 90 90 89 90 89 89 89 89 88 89 89 89 90 90 90 90 91 91 92 92 93 93 93 94 94 94 94 94 94 93 93 93 93 94 94 94 93 93 93 93 92 92 91 91 90 90 90 89 89 90 90 91 91 93 94 94 95 94 93 92 92 91 92 93 94 94 94 94 93 92 91 89 88 87 86 86 87 87 87 88 88 88 87 87 87 87 87 87 87 88 87 86 85 83 82 81 81 81 81 82 81 81 81 80 80 79 80 80 80 80 81 81 80 80 81 81 81 80 81 80 80 80 80 80 80 80 80 80 79 79 79 78 79 79 79 79 79 79 78 78 78 77 77 76 77 77 77 77 78 78 78 78 79 78 78 78 78 77 76 76 76 76 76 76 77 77 77 77 77 76 76 76 76 76 76 75 75 75 75 75 75 75 76 75 75 76 76 76 76 76 77 78 79 79 79 79 80 80 79 79 79 79 79 80 80 80 80 81 81 81 82 81 82 82 81 80 80 80 80 79 79 79 79 79 78 78 78 78 78 78 78 79 80 81 82 83 83 83 83 82 82 82 81 81 82 81 81 81 81 80 80 81 81 82 82 83 83 83 83 83 83 82 81 81 81 81 82 82 83 84 84 84 84 85 85 85 85 86 86 86 86 86 86 87 88 90 91 92 92 92 91 90 89 87 86 86 84 83 82 82 81 80 78 77 76 74 72 70 68 67 67 67 68 69 70 71 72 72 72 72 72 71 71 71 71 71 72 73 74 75 77 78 78 79 79 80 80 80 78 76 75 73 71 69 68 67 66 65 65 67 68 69 69 69 68 66 65 63 61 60 60 60 61 63 66 69 72 74 75 76 75 74 74 74 75 76 77 77 76 75 73 70 67 63 59 55 53 51 50 50 50 51 53 56 58 61 64 66 66 67 67 66 66 66 66 66 67 67 67 67 67 67 66 66 65 65 65 65 64 65 65 65 64 65 65 66 66 67 68 68 70 72 74 76 78 80 81 82 82 82 82 82 82 82 82 82 82 82 81 81 81 81 80 78 77 75 72 70 66 63 60 59 57 55 54 53 53 53 52 53 55 56 58 59 59 60 60 60 60 60 60 60 59 58 57 56 55 54 53 53 53 54 55 57 60 64 68 72 76 79 81 80 79 76 74 70 66 62 59 56 54 52 51 50 50 49 50 50 51 51 52 52 53 53 53 54 54 55 56 56 57 57 58 59 58 59 59 60 59 58 58 57 58 58 60 61 62 64 65 66 66 66 66 65 64 63 62 62 60 60 59 59 59 59 59 59 60 62 63 65 66 67 67 66 66 65 65 65 64 64 63 62 61 60 59 59 59 59 60 60 61 61 59 58 58 58 60 62 65 67 68 68 67 67 66 65 64 63 62 62 61 61 62 62 62 63 62 63 63 63 63 64 63 64 64 65 65 65 64 63 62 61 60 59 58 58 60 63 66 70 75 79 83 86 88 90 89 87 84 80 76 73 71 69 67 64 60 58 57 56 55 55 55 54 54 53 53 53 54 56 61 67 73 80 86 90 93 94 94 92 90 89 88 88 87 87 85 84 83 82 82 81 79 76 71 66 61 57 55 53 53 53 53 53 53 54 54 54 53 53 52 52 51 51 52 52 51 51 52 52 52 52 51 50 50 50 50 50 51 52 52 52 53 53 52 51 51 51 50 50 51 51 51 52 52 51 52 52 52 52 52 52 52 53 53 53 52 52 52 52 52 52 52 53 52 52 52 52 52 52 51 51 51 52 52 53 53 53 53 52 52 51 51 51 52 52 52 52 53 53 53 53 52 52 51 51 51 51 51 51 51 51 50 50 50 50 50 50 50 50 50 50 51 50 50 50 50 50 50 50 50 51 51 51 51 51 50 50 49 49 49 48 48 48 48 47 46 46 46 45 45 45 45 46 46 47 47 48 48 49 49 49 50 50 50 50 50 50 51 50 50 50 50 50 50 50 49 49 49 49 48 48 48 48 48 48 49 49 49 49 49 49 49 49 49 49 49 50 50 51 51 52 52 52 52 52 52 51 51 52 52 52 52 52 52 52 52 52 52 51 51 50 50 50 50 50 50 50 51 50 51 51 51 50 50 49 49 49 49 49 49 49 49 48 48 47 47 47 47 48 48 48 49 49 48 48 48 47 47 46 46 46 47 48 48 49 49 48 48 48 47 48
90 91 91 90 90 90 90 90 90 90 90 90 90 90 89 89 89 89 89 88 89 89 89 89 90 90 91 91 92 92 93 93 94 94 94 95 95 94 94 94 94 94 94 94 94 94 94 93 93 93 93 92 92 91 91 90 90 90 90 90 90 91 92 93 94 95 94 94 93 92 91 91 92 93 94 94 94 94 93 92 90 89 88 87 86 87 87 87 88 88 88 88 87 87 86 87 87 87 87 87 86 86 85 84 82 82 82 81 81 81 81 80 80 79 79 80 80 80 80 80 80 80 80 80 80 80 80 80 80 80 80 80 80 79 79 79 80 79 79 79 78 79 79 79 80 79 79 79 79 78 77 77 77 76 77 77 77 77 78 78 78 78 78 78 78 78 78 77 77 76 76 76 76 76 77 77 77 77 77 77 76 76 76 76 76 75 75 75 75 75 75 75 75 75 75 76 76 76 77 77 77 78 78 79 79 79 78 79 79 79 79 79 79 80 80 80 80 81 81 81 81 82 82 82 81 80 80 80 80 79 79 78 78 78 77 77 77 78 78 78 78 79 80 81 82 83 83 83 83 82 82 82 82 82 81 81 80 80 80 80 80 80 81 82 82 82 83 83 83 83 83 82 82 81 82 82 82 82 83 83 84 84 84 84 85 85 85 86 86 86 86 86 86 87 89 90 92 92 93 92 92 91 90 88 87 86 85 84 83 82 81 80 79 77 76 74 71 69 68 67 67 67 68 69 70 71 72 72 72 72 71 71 71 71 71 71 71 72 73 75 76 77 77 79 79 80 80 79 78 76 74 72 71 69 67 66 65 64 64 65 67 68 69 69 68 66 64 63 61 60 59 59 60 62 65 69 72 74 76 77 76 76 76 76 76 76 77 77 77 76 73 70 67 63 59 56 53 51 50 50 50 51 53 56 59 61 64 66 67 68 68 67 67 66 66 66 66 67 67 67 67 67 67 66 66 65 65 65 65 65 66 65 65 66 66 67 67 68 69 70 71 73 75 77 80 81 82 82 83 83 83 84 84 83 83 82 82 81 81 81 81 80 79 78 76 74 72 69 66 63 60 58 56 55 54 53 52 52 52 53 54 56 58 59 60 61 62 62 62 62 62 62 61 59 57 56 55 54 53 53 53 54 55 57 60 63 67 72 76 80 81 81 79 77 74 70 67 62 59 56 54 52 51 50 50 50 50 50 51 51 52 52 52 53 53 53 54 55 55 56 56 57 57 58 59 59 60 60 59 59 58 58 59 59 60 61 62 64 65 66 66 66 66 66 65 64 62 61 60 60 59 59 59 58 58 58 59 61 63 66 67 68 68 67 66 66 65 64 63 63 62 62 61 60 59 59 59 59 60 60 61 61 60 58 58 59 60 62 65 67 68 68 67 67 66 65 64 63 63 63 62 63 63 63 63 63 63 63 63 63 63 63 63 64 64 64 65 65 64 64 63 62 61 60 59 58 59 61 63 66 70 74 78 81 85 88 90 91 89 86 83 79 76 73 70 66 62 59 56 55 54 54 54 53 53 53 53 54 56 60 66 72 78 84 88 92 93 93 91 88 84 82 82 82 82 82 81 80 80 80 80 81 81 79 75 70 64 59 56 54 53 53 53 53 54 54 54 54 54 53 53 52 52 52 51 51 51 52 52 52 52 51 51 51 50 50 50 50 51 51 53 53 53 53 52 52 51 50 50 50 51 51 51 51 51 51 51 51 52 52 52 52 52 52 52 52 52 52 52 52 52 53 53 53 52 52 52 52 52 52 51 51 51 52 52 53 53 53 52 52 51 51 51 51 51 51 52 53 54 54 54 53 53 52 52 51 51 52 51 52 51 51 50 50 51 51 51 50 51 51 50 50 51 50 50 50 49 49 49 49 50 50 51 51 51 51 51 51 50 49 49 49 49 48 48 47 46 46 46 45 45 45 45 45 45 46 46 47 48 48 49 49 49 50 50 50 50 50 50 50 50 50 50 50 50 50 50 49 49 49 49 48 48 48 48 48 49 49 49 49 49 50 49 49 49 48 49 50 50 50 51 51 51 51 51 51 51 51 51 51 52 52 52 52 52 52 52 51 51 50 51 51 50 50 50 50 50 51 51 51 51 51 51 51 50 50 50 50 50 50 50 50 50 49 48 48 47 47 48 48 49 49 49 49 49 49 48 48 47 47 47 47 48 49 49 50 50 49 48 47 47 48
91 90 90 90 90 90 90 90 90 90 90 90 90 90 89 89 89 89 88 88 88 89 89 89 90 90 90 91 92 93 93 93 94 94 95 95 95 94 94 94 94 94 94 94 94 94 94 94 93 93 93 92 92 91 91 91 90 90 90 90 91 92 93 94 94 94 94 93 93 92 92 91 92 93 94 94 94 94 93 92 90 89 87 87 86 86 87 87 88 88 88 88 87 87 87 87 87 86 86 86 86 86 85 84 83 82 81 81 81 81 81 81 80 79 79 79 80 80 80 80 80 80 80 80 80 80 80 79 79 79 79 79 79 79 79 79 79 79 79 79 79 79 79 79 80 79 79 79 78 78 77 77 76 76 77 77 77 77 77 78 78 78 78 78 78 78 78 77 77 76 76 75 76 77 77 77 77 77 77 76 76 76 76 76 75 75 74 74 75 75 75 74 75 75 75 75 76 76 77 77 78 78 78 78 78 78 78 78 78 79 79 79 79 79 80 80 80 81 81 81 82 82 82 82 81 81 81 80 80 79 79 78 77 77 77 77 77 78 78 79 79 79 80 81 82 83 83 83 83 83 82 82 82 81 81 81 80 80 80 80 80 80 81 81 82 82 82 82 82 83 83 83 83 83 83 82 82 83 83 83 83 83 83 84 84 84 85 85 86 86 86 86 87 88 90 91 92 93 93 93 92 91 90 88 87 85 84 83 83 82 81 80 78 77 75 73 71 69 68 67 67 67 68 69 69 71 71 72 72 72 72 71 71 71 70 70 71 72 73 74 75 76 77 78 79 80 79 79 77 76 74 72 70 69 67 66 65 64 64 65 66 67 69 69 68 66 64 63 61 60 59 59 59 61 65 68 72 75 77 78 78 78 77 77 77 77 77 78 77 76 73 71 67 63 59 56 53 51 50 50 50 52 54 56 59 62 64 66 68 68 68 68 66 66 66 66 66 67 67 67 68 67 67 67 67 66 66 66 66 66 66 66 66 67 67 68 69 70 70 71 73 74 76 78 80 82 83 83 84 84 85 85 85 84 83 83 82 81 81 81 81 80 79 78 76 74 71 69 66 63 60 58 57 55 54 53 52 52 52 53 54 55 58 59 61 62 63 63 63 64 63 63 62 60 59 57 56 54 53 53 53 54 55 56 59 63 67 72 76 79 81 81 80 77 74 71 67 63 60 56 54 52 51 50 50 49 50 50 51 52 52 52 53 53 53 53 53 54 55 56 56 57 58 58 59 59 60 60 60 60 59 59 59 60 60 61 62 63 64 65 65 66 66 66 66 64 63 62 61 60 58 57 57 57 57 57 59 61 63 66 68 69 69 68 67 66 65 64 63 63 62 62 61 60 59 59 58 59 60 61 61 61 60 59 59 59 60 63 65 66 67 68 67 66 65 64 64 63 63 63 63 63 63 63 64 63 63 63 63 63 62 62 62 62 63 64 64 64 65 64 63 62 62 61 60 59 59 59 61 63 65 69 72 76 80 84 88 91 92 91 88 85 82 78 73 69 65 61 57 56 54 54 53 53 53 54 55 57 60 65 70 77 82 87 90 92 91 89 85 81 77 76 75 75 75 75 76 75 75 76 77 79 81 80 77 72 66 60 57 55 54 53 53 54 54 54 54 54 54 53 53 52 52 52 52 51 52 52 52 52 51 51 51 50 50 50 50 50 51 51 52 52 53 53 52 52 51 50 50 50 50 50 51 51 51 51 51 51 52 52 52 52 52 52 52 52 52 52 52 52 52 52 52 52 52 52 52 52 52 52 51 52 52 52 52 53 53 53 52 52 51 51 51 51 51 51 52 53 54 54 54 55 54 53 52 52 52 52 52 52 52 51 51 51 51 51 51 51 51 51 51 51 51 50 49 49 49 49 48 49 49 50 50 51 51 51 51 51 51 50 50 49 49 48 48 47 47 46 46 45 45 45 45 45 45 46 46 46 47 47 48 48 49 49 49 49 49 49 49 50 50 50 50 50 50 50 50 50 50 49 49 49 48 48 49 49 49 49 49 50 50 50 50 50 49 49 49 49 50 50 50 50 50 50 50 50 50 51 51 52 51 51 51 51 51 51 51 51 50 50 50 50 50 50 51 51 51 51 51 51 50 51 51 51 50 51 51 51 51 51 51 51 51 50 49 49 48 48 48 49 49 49 50 50 50 49 49 48 48 48 48 49 49 50 51 51 50 49 48 48 47 47
91 91 91 91 90 90 90 90 90 90 90 90 90 90 89 89 89 89 88 88 88 89 89 89 90 90 90 91 91 92 93 93 94 94 95 95 95 94 94 94 94 94 94 94 94 94 94 94 94 93 93 93 92 92 92 91 91 91 91 91 92 93 94 94 95 95 94 93 92 92 92 92 93 94 94 94 95 94 93 92 90 89 87 86 86 86 87 87 87 88 88 88 87 87 87 86 86 86 86 86 86 85 85 84 83 82 82 82 81 81 80 80 79 79 79 79 79 80 80 80 80 79 79 79 79 79 79 79 79 78 79 79 79 79 79 79 79 79 79 79 79 79 79 80 80 79 79 78 78 78 77 76 77 77 77 77 77 77 77 77 78 78 78 78 78 78 77 77 76 76 75 76 76 77 77 77 78 77 77 77 76 76 76 75 75 75 74 74 74 75 74 74 74 75 75 75 76 76 77 77 78 78 78 78 77 77 77 77 77 78 78 79 79 79 79 80 80 80 81 81 81 82 82 82 82 82 81 81 80 80 79 78 77 77 77 77 78 79 79 79 79 79 80 81 82 83 83 83 82 82 82 82 82 81 81 81 80 80 80 80 80 80 81 81 81 81 82 82 82 83 83 84 84 84 84 83 83 83 83 83 83 83 83 83 83 84 84 85 85 85 86 86 87 89 90 91 93 93 93 93 92 91 90 88 86 85 84 83 82 81 80 79 78 77 75 73 71 69 68 68 67 68 68 69 70 71 71 72 73 73 72 72 71 71 70 71 71 72 73 73 74 75 77 78 78 79 79 78 77 76 74 72 70 69 67 65 64 63 63 64 65 66 68 68 68 66 65 63 61 60 59 58 59 61 64 67 71 75 78 80 80 79 79 78 78 78 78 78 77 76 74 71 67 63 59 56 53 51 49 50 50 52 54 56 59 62 64 66 67 68 67 67 66 66 65 65 66 67 67 67 67 68 68 67 67 67 67 67 67 68 67 67 67 68 68 69 70 71 72 73 74 76 78 80 81 82 83 84 85 86 86 86 86 85 84 84 83 82 81 81 80 79 78 77 76 74 71 69 66 63 60 58 57 55 55 54 53 52 53 53 54 55 57 59 61 63 64 65 65 65 65 64 63 61 60 58 56 55 54 53 53 54 55 57 59 63 68 72 76 79 80 81 80 78 75 71 67 64 60 57 55 52 51 50 50 50 50 51 52 52 52 52 52 52 52 53 53 54 55 56 57 57 58 59 59 60 60 60 60 60 60 60 60 60 60 61 61 62 63 64 65 65 66 67 66 66 64 63 61 60 58 57 57 56 56 57 58 60 63 66 68 69 69 69 68 66 65 63 63 63 62 62 61 60 59 59 59 59 60 61 62 62 61 60 59 59 60 62 64 66 67 67 67 66 65 65 64 63 63 63 63 64 64 64 64 64 64 63 62 62 62 61 61 61 62 63 63 64 64 64 64 63 63 62 61 60 59 58 59 60 62 64 66 70 74 79 84 88 91 93 92 90 86 82 76 71 66 62 58 56 55 54 54 53 54 55 57 60 64 69 75 81 86 89 90 90 88 84 79 74 71 69 68 68 69 68 69 70 70 71 73 75 78 79 77 73 67 62 58 56 55 55 54 54 54 54 54 54 53 53 53 52 52 52 52 51 52 52 52 52 52 51 51 50 50 50 50 50 50 51 51 52 53 52 52 51 51 50 50 50 50 50 50 50 50 50 51 51 52 52 52 51 51 51 52 52 52 52 52 52 52 52 52 52 52 52 52 52 52 52 52 52 52 52 52 53 53 53 52 52 51 51 51 51 51 51 52 54 54 55 56 56 55 54 53 53 52 52 52 52 52 52 51 51 51 51 51 51 51 51 51 51 51 50 49 49 48 48 48 48 48 49 50 50 51 51 51 51 51 51 50 50 50 49 49 48 47 46 46 46 45 45 45 45 45 45 46 46 47 47 47 47 48 48 48 49 49 49 49 49 49 50 50 50 50 50 50 50 49 49 49 49 49 49 49 49 49 49 49 49 50 50 50 50 50 49 49 49 50 49 49 49 49 50 50 49 50 50 50 51 51 51 51 51 50 50 51 50 50 50 50 50 50 50 50 51 50 50 50 50 50 50 50 51 51 51 51 51 51 51 52 52 51 50 50 50 50 49 49 49 49 50 50 51 50 50 49 49 49 49 49 50 50 51 51 51 51 50 49 47 47 47
91 91 91 91 90 90 90 90 90 91 90 90 90 90 89 89 89 89 89 89 89 89 89 90 90 90 90 91 92 92 92 93 94 94 95 95 94 94 94 94 94 94 94 94 94 94 94 94 93 93 93 93 92 92 92 91 92 91 91 92 93 93 94 95 95 95 94 94 93 92 92 92 93 94 94 95 94 94 93 92 90 88 87 86 86 86 86 87 88 88 88 87 88 87 87 87 86 86 86 85 85 85 85 84 83 82 82 81 81 80 80 80 79 79 79 79 79 79 79 79 79 79 79 79 78 78 78 78 78 78 79 79 79 79 79 79 79 79 79 79 79 79 80 80 80 79 79 78 78 77 77 77 77 77 77 77 77 77 77 77 77 77 78 77 78 78 77 76 76 75 76 76 76 77 77 77 78 77 77 77 77 76 76 75 74 74 74 74 74 75 75 75 74 74 75 75 75 76 76 77 78 78 78 77 77 76 76 76 77 77 78 78 78 79 79 79 79 80 80 81 82 81 82 82 82 82 81 81 81 80 79 78 77 77 77 77 79 79 80 80 80 80 81 81 82 82 82 83 82 82 82 81 81 81 81 80 80 80 79 79 79 80 80 82 81 81 81 82 83 83 84 85 85 85 85 85 84 84 83 84 83 83 83 83 83 84 84 85 85 86 86 86 88 89 91 92 93 93 94 93 92 91 89 87 85 84 83 82 81 80 80 78 78 76 74 72 71 70 69 68 68 69 69 69 70 71 72 72 73 73 73 72 72 71 71 71 71 72 72 73 74 75 76 78 78 79 79 78 76 75 74 72 70 69 67 65 64 63 63 63 65 66 67 68 67 67 65 64 62 61 59 58 58 60 63 66 70 75 79 81 82 82 81 80 80 78 78 78 78 76 74 71 68 63 59 56 54 52 50 50 51 52 54 56 59 62 64 66 67 67 67 67 66 65 65 65 65 67 67 68 68 68 69 68 68 68 68 68 69 69 69 69 68 68 69 70 71 72 73 74 75 77 78 80 81 83 84 84 85 86 86 87 86 86 85 84 83 82 81 80 80 80 79 78 76 74 72 69 66 63 61 59 57 56 55 54 53 53 53 53 54 55 57 59 62 63 64 65 66 66 66 66 64 62 60 58 57 55 54 53 53 54 55 57 60 63 67 72 76 79 80 81 80 78 75 72 68 64 61 58 55 53 52 51 51 50 50 52 52 52 52 52 52 52 52 53 54 55 55 56 57 58 58 59 60 60 60 61 61 61 60 60 60 60 60 60 61 62 62 63 65 65 66 66 67 66 65 63 62 60 58 57 56 55 56 57 58 61 63 66 68 69 69 68 68 66 64 63 62 62 62 62 61 60 60 60 60 60 60 61 62 63 62 60 59 59 60 62 64 65 67 66 66 65 65 64 64 63 63 63 63 64 64 64 64 64 64 63 62 62 61 60 60 60 61 62 63 63 64 64 64 64 63 63 62 61 59 58 57 58 58 59 60 64 68 73 79 84 88 92 92 91 88 84 78 72 66 62 59 57 55 54 54 54 55 57 60 64 69 75 80 85 88 90 90 88 83 78 73 68 64 62 62 63 63 64 64 65 65 67 69 71 74 75 74 71 66 62 59 57 56 56 55 54 54 54 54 54 53 53 53 53 52 52 52 52 52 52 52 52 51 51 51 50 50 50 50 50 50 51 51 52 52 52 52 52 51 50 50 50 50 50 50 50 50 50 51 51 51 51 51 51 51 51 51 51 51 52 52 52 52 52 52 52 52 52 52 52 52 52 52 52 52 52 52 52 52 52 52 52 51 51 51 51 51 51 52 54 54 55 56 56 55 54 54 53 53 53 52 52 52 52 52 52 51 51 51 51 51 51 51 51 51 50 49 49 48 48 47 47 48 49 49 50 50 51 51 51 51 51 51 51 51 50 49 49 48 47 47 46 46 45 45 45 45 46 46 46 46 46 46 46 47 48 48 48 48 48 48 48 49 49 50 50 50 50 50 50 49 49 50 49 49 49 49 50 49 49 49 49 50 50 50 50 50 49 49 50 50 49 49 49 49 49 49 49 49 50 50 50 50 50 50 51 50 50 50 50 50 49 49 50 50 50 50 50 50 50 50 49 50 50 50 50 51 51 51 51 51 51 52 51 51 51 51 50 50 50 50 49 50 50 51 51 51 51 50 49 49 49 50 51 51 51 52 51 50 50 48 47 47 46
92 91 91 91 91 91 91 90 91 90 90 90 90 90 89 89 88 89 89 89 89 89 90 90 90 90 91 91 92 92 92 93 94 94 94 94 95 94 94 93 94 94 94 94 94 94 94 93 93 93 93 93 92 92 92 92 92 92 93 93 94 94 95 95 96 95 95 94 93 93 92 93 93 94 95 95 94 93 92 91 89 88 87 87 86 86 86 87 87 87 87 87 87 87 87 86 86 86 85 85 85 85 84 83 83 82 81 81 80 80 80 80 80 80 80 80 80 79 79 79 79 79 79 78 78 78 78 77 78 78 78 78 78 79 79 79 79 79 79 79 79 79 79 80 80 79 78 78 77 77 77 77 76 77 77 77 77 77 77 77 77 77 77 77 77 77 76 76 75 75 76 76 76 77 77 78 78 78 77 77 77 76 76 75 75 74 74 74 74 75 75 75 74 74 74 75 75 76 76 77 77 78 77 77 76 76 76 76 76 77 78 78 78 78 78 78 79 79 80 81 81 82 82 83 83 83 82 82 81 80 80 78 78 77 77 78 79 80 80 80 81 81 81 81 82 82 82 82 82 82 81 81 81 81 80 80 80 80 79 79 79 80 81 81 81 81 81 82 83 83 84 85 86 86 85 85 85 85 84 85 84 83 83 84 84 84 85 85 85 86 86 86 88 89 91 93 93 94 93 93 92 90 88 86 85 83 82 81 81 80 79 78 77 76 74 72 71 70 70 69 69 69 70 70 71 71 72 73 73 74 74 74 73 73 72 72 72 72 72 73 74 75 76 77 78 79 78 78 76 75 74 72 70 69 67 65 64 64 63 64 65 65 67 67 67 66 65 64 63 61 59 58 58 59 61 65 70 75 79 82 83 83 83 82 81 79 78 78 77 76 74 71 67 63 60 56 54 52 50 50 50 52 54 56 59 61 64 65 66 67 67 66 65 65 64 65 65 66 67 68 69 69 69 69 69 69 69 70 70 70 70 70 70 70 70 70 72 72 74 75 76 77 78 80 81 82 84 84 86 87 87 87 87 87 86 85 83 82 81 80 80 80 79 78 76 74 72 69 67 64 61 59 57 56 55 54 53 53 53 53 53 54 57 59 61 64 65 66 67 67 67 66 64 63 61 58 56 55 54 54 54 54 55 57 59 63 67 71 75 78 79 80 80 78 75 72 68 65 61 59 56 54 53 52 51 50 51 51 52 52 52 52 52 52 52 53 54 55 56 57 58 59 59 60 60 60 61 61 61 61 61 61 62 61 61 61 61 62 62 63 64 65 66 66 66 66 65 64 62 60 58 57 56 55 55 57 59 61 64 66 68 69 69 68 67 65 64 63 63 62 62 61 61 61 60 60 60 60 61 62 63 64 62 61 60 60 60 61 62 64 66 66 66 65 64 64 63 63 63 63 63 63 64 64 64 64 63 63 62 61 60 60 60 60 60 61 62 63 63 64 64 64 64 64 63 61 60 59 57 56 55 55 56 58 62 67 73 79 84 88 90 90 88 84 77 71 66 62 59 57 56 55 55 56 57 59 64 69 75 80 84 88 89 89 87 84 78 72 67 63 60 59 59 59 60 60 61 61 62 63 65 67 69 70 70 68 65 63 61 60 59 58 57 55 55 54 53 53 53 53 52 52 52 52 52 52 52 52 52 51 51 51 50 51 50 50 50 50 50 51 51 51 51 52 51 51 51 51 50 50 50 50 50 50 50 50 50 50 51 51 51 51 51 51 51 51 51 51 51 51 51 52 52 52 52 52 52 52 52 52 51 51 51 52 52 52 52 52 52 51 51 51 51 51 51 51 52 53 54 55 56 56 55 55 54 53 53 53 53 53 52 52 52 51 51 51 51 51 51 51 51 51 51 50 50 49 48 48 47 47 48 48 48 49 50 50 51 51 51 51 51 51 51 50 50 50 49 48 48 47 46 46 45 45 46 46 46 46 46 46 46 46 47 47 48 48 48 48 47 48 48 48 49 49 50 50 50 49 49 49 50 50 50 50 50 50 50 50 50 50 50 51 50 50 50 50 50 50 50 50 49 50 49 49 49 49 49 49 49 50 50 50 50 50 49 49 50 50 50 50 49 50 49 50 50 49 49 49 49 49 49 49 50 50 50 50 51 50 51 51 51 51 51 51 51 51 50 50 50 50 50 50 51 51 51 51 50 50 50 50 50 51 52 52 53 52 51 50 48 47 47 46
92 92 92 91 91 91 91 91 91 91 91 90 90 90 89 89 89 88 89 89 89 90 90 90 90 90 91 91 92 92 92 93 93 94 94 94 94 94 94 93 94 94 94 94 94 94 94 94 94 94 93 94 93 93 92 93 93 93 94 94 94 95 95 95 95 95 94 94 93 93 93 93 94 94 95 95 94 93 91 91 89 88 87 86 86 86 86 87 87 87 87 87 87 87 87 86 86 86 86 85 85 84 84 83 82 82 81 81 81 81 80 80 80 80 80 80 80 80 79 79 79 79 78 78 78 78 78 78 77 78 78 78 79 79 79 79 79 79 79 79 79 79 79 79 79 79 78 77 77 76 76 76 77 76 77 77 77 77 77 77 77 77 77 77 77 77 76 75 75 75 75 76 76 77 77 78 78 78 77 77 76 76 76 75 74 74 74 74 75 75 75 75 74 74 74 75 75 75 76 77 77 77 77 77 77 76 76 76 77 77 77 77 78 78 78 78 78 79 80 80 81 81 82 82 83 83 83 83 82 81 80 78 78 78 78 79 80 80 81 81 81 81 81 81 81 82 82 82 82 81 81 81 81 80 80 80 79 79 79 79 78 79 81 81 81 82 82 82 83 84 84 85 86 87 87 86 86 85 85 85 84 84 84 84 84 84 85 85 86 86 87 87 88 90 91 92 93 93 94 93 92 90 88 86 84 82 81 80 80 78 77 77 76 75 73 72 72 71 70 70 70 70 71 71 71 72 73 73 74 74 75 74 74 73 73 73 73 73 73 73 74 75 76 78 79 79 79 78 77 75 74 72 70 68 66 65 64 64 64 64 65 65 66 66 66 66 65 64 63 62 60 59 59 59 61 65 69 74 79 82 84 84 84 83 82 80 79 78 77 75 73 70 67 63 59 56 54 52 50 50 50 52 53 56 59 62 64 65 66 66 67 66 65 64 64 65 66 67 68 69 69 70 70 70 71 71 71 71 72 71 71 71 71 71 71 71 72 73 74 74 75 77 78 79 80 82 83 85 86 87 87 88 88 87 87 85 84 82 81 80 80 80 79 78 76 75 73 70 67 65 62 59 57 56 55 54 53 52 52 52 53 54 56 58 61 63 65 66 67 68 68 66 64 63 61 59 56 55 54 54 54 55 56 57 60 63 67 71 74 77 79 79 79 78 75 72 69 66 63 59 57 55 53 52 51 51 51 51 52 52 52 53 53 53 52 53 54 55 56 57 59 59 59 60 60 61 61 62 61 61 61 62 62 62 62 62 61 62 62 63 63 64 65 66 66 66 65 64 62 60 59 57 56 55 56 57 59 61 63 66 67 68 68 68 67 65 64 63 62 62 61 61 61 61 61 61 60 60 61 62 63 64 64 62 60 60 60 60 62 63 65 65 65 64 64 64 63 63 63 63 63 63 64 64 64 63 63 62 62 61 59 59 59 59 59 60 61 62 63 63 64 64 64 64 64 62 61 59 58 56 54 52 52 54 58 63 68 73 78 82 85 86 84 80 75 69 64 61 59 57 57 57 57 57 59 63 68 74 80 85 88 89 89 87 84 79 73 67 62 58 57 56 56 57 58 59 59 59 60 60 62 64 65 66 66 65 64 63 63 63 63 61 60 58 56 54 53 53 53 53 53 52 53 53 52 52 52 52 52 52 51 51 51 51 51 51 51 50 50 50 51 51 51 52 52 52 51 51 51 50 50 50 50 50 49 50 50 50 50 51 51 51 50 50 50 50 50 51 51 51 51 51 51 51 51 51 51 51 51 51 51 51 51 52 52 52 52 52 52 51 51 51 51 51 50 51 52 52 53 54 55 56 55 54 54 53 53 53 53 53 52 52 51 51 51 51 51 51 51 51 51 51 51 50 49 49 48 48 48 47 48 48 48 49 50 50 50 50 51 51 51 51 51 51 50 50 50 49 49 48 47 47 46 46 46 46 46 46 45 46 45 45 46 46 47 47 48 48 48 48 48 48 49 49 49 49 49 49 49 50 50 50 51 50 50 50 50 50 50 49 50 50 51 51 51 51 51 51 50 50 50 49 49 49 49 49 49 49 49 49 50 50 50 50 49 49 50 50 50 49 50 49 49 50 49 49 48 48 48 48 49 49 49 49 50 50 50 50 50 51 51 51 51 51 50 51 50 50 50 50 50 51 51 51 51 51 50 50 50 50 51 52 52 53 53 52 51 49 48 47 47 47
92 92 92 92 91 91 91 91 91 91 90 90 90 89 89 89 88 89 89 89 90 90 90 90 91 91 91 92 92 92 93 93 93 93 94 94 94 94 94 94 94 94 94 94 94 94 94 94 94 94 94 94 93 93 92 93 93 93 94 94 94 94 95 95 95 95 94 94 94 93 93 93 94 94 94 94 94 92 91 90 89 88 88 87 87 86 86 86 86 86 86 86 87 87 87 86 86 86 85 85 85 84 84 83 82 82 81 81 81 81 80 81 80 80 80 80 80 80 79 79 78 78 78 78 78 78 77 77 77 78 78 78 78 79 78 79 79 79 79 79 79 79 79 79 79 78 78 77 77 76 76 76 76 76 77 77 77 77 77 77 77 77 77 76 77 76 75 75 74 75 75 76 76 77 77 77 77 77 77 77 77 77 76 75 74 74 74 74 75 75 75 75 75 74 74 75 75 75 76 76 77 77 78 77 77 77 77 77 77 77 77 77 78 78 78 78 78 79 80 80 81 81 82 83 83 84 84 84 82 81 80 79 79 79 79 80 81 81 81 81 82 82 81 81 81 81 82 82 81 81 80 80 80 79 79 79 79 79 78 78 78 79 80 81 81 81 82 83 83 83 84 85 86 86 87 86 86 86 86 86 85 84 84 84 84 84 84 85 85 86 87 87 88 89 91 92 92 93 93 93 91 89 87 85 83 81 80 78 78 77 76 76 75 74 73 72 72 71 72 71 71 72 71 72 72 73 73 74 75 75 76 75 75 75 75 74 74 74 73 74 74 75 77 78 78 79 78 78 76 75 73 71 70 68 66 65 64 63 64 65 65 65 66 65 66 65 65 64 63 62 61 60 59 60 62 65 69 74 79 83 84 85 85 84 82 81 79 78 76 75 73 69 66 63 59 56 54 51 50 50 50 51 53 56 59 61 63 65 65 66 66 66 65 65 65 65 66 68 69 70 71 72 72 72 72 72 72 72 72 72 72 71 71 71 71 71 72 72 73 74 75 75 76 78 79 81 83 84 86 87 88 89 88 88 87 85 84 82 81 81 80 80 80 79 77 76 73 70 68 65 62 59 57 56 55 54 53 52 51 51 52 53 55 58 60 63 65 66 67 68 67 66 64 62 61 59 57 56 55 54 54 55 57 58 61 63 67 71 74 76 78 79 79 78 75 73 70 67 64 61 58 56 54 53 52 52 51 52 52 53 53 53 53 53 53 54 55 56 57 58 59 60 60 61 61 61 62 62 61 61 62 62 63 63 63 62 62 61 61 62 63 64 65 65 66 66 65 64 63 61 59 57 56 56 56 57 59 61 63 65 67 68 68 67 66 64 63 63 62 61 61 61 61 61 61 61 61 61 62 63 64 65 64 63 61 60 59 60 61 62 64 65 64 64 64 64 64 63 63 63 63 63 63 63 63 63 63 62 61 60 59 59 58 58 58 59 60 61 62 63 64 64 65 64 64 63 62 60 58 56 53 51 51 52 55 59 64 68 72 76 79 80 79 75 71 66 62 60 58 58 57 58 58 60 62 67 73 79 84 88 90 90 88 84 79 73 67 63 59 57 56 55 56 56 57 58 58 58 58 58 59 60 61 62 63 63 64 65 66 67 68 66 64 61 57 54 53 52 52 52 52 53 53 53 52 52 52 51 52 51 51 51 51 51 51 52 51 51 51 50 50 51 51 52 52 52 51 51 51 50 50 50 50 50 50 50 49 50 50 50 51 50 50 50 50 50 50 50 50 50 50 50 51 51 51 51 51 51 51 51 51 51 51 51 52 52 52 52 51 51 51 51 52 51 50 50 51 52 53 54 55 55 55 54 54 53 53 53 53 52 52 52 51 51 51 51 51 51 51 51 51 51 50 50 49 49 49 48 48 48 48 48 48 49 49 49 50 50 50 51 51 51 51 51 51 51 51 50 49 49 48 47 47 46 47 46 46 46 45 46 46 46 46 46 47 47 47 48 47 48 48 48 48 48 48 48 48 49 49 49 50 51 51 51 51 50 50 50 50 50 50 50 51 51 51 51 51 51 51 50 50 50 49 49 49 49 49 49 49 49 49 50 50 50 50 49 50 50 50 50 50 50 49 49 49 48 48 48 48 48 48 48 49 49 50 49 50 49 49 50 50 51 51 51 51 50 50 50 50 50 50 51 51 51 52 50 50 50 50 51 51 52 53 53 53 53 52 50 49 48 47 47
92 92 92 92 91 91 91 91 91 90 90 90 89 89 89 89 89 89 89 90 90 91 91 91 91 91 92 92 92 92 92 93 93 93 93 94 94 94 94 94 95 95 94 95 95 94 94 94 93 93 94 94 93 93 93 93 93 94 94 94 95 95 95 95 95 95 94 93 93 93 93 93 94 94 94 94 93 92 91 90 90 89 88 87 87 87 86 86 86 85 86 86 86 86 86 86 86 85 85 85 84 84 83 83 82 82 82 81 81 80 81 81 81 80 80 80 80 80 79 79 78 78 78 78 78 77 77 77 77 77 78 78 79 79 79 79 79 79 79 79 79 79 79 79 78 78 77 77 77 77 76 76 77 77 77 77 77 78 77 77 77 77 76 76 76 76 76 75 74 74 75 76 76 77 77 77 78 78 77 77 77 76 76 75 75 75 75 75 75 75 75 75 75 75 75 75 75 76 76 76 77 77 78 78 78 78 78 78 77 78 77 78 77 78 78 78 78 79 79 80 81 81 82 83 84 84 84 83 82 82 81 80 79 79 79 80 81 81 81 82 82 82 81 81 81 81 82 82 81 80 80 79 79 79 79 79 79 79 79 79 79 79 81 81 81 82 82 83 83 83 84 85 85 85 86 86 86 86 86 86 86 85 85 84 84 84 84 85 85 86 87 87 88 89 90 91 92 92 92 92 91 88 86 84 82 80 78 77 76 75 75 74 74 73 72 72 72 72 72 72 72 72 72 72 73 74 74 75 75 76 76 77 77 76 76 75 75 74 74 75 75 76 77 78 79 79 78 77 76 75 74 72 69 67 65 64 63 64 65 65 65 65 66 65 65 64 64 63 63 62 62 60 61 61 63 66 69 74 78 82 85 86 86 85 83 81 79 78 76 74 71 69 66 62 59 56 53 51 50 50 51 52 54 56 59 62 64 65 66 67 67 67 66 65 65 66 68 69 71 72 73 73 73 73 74 73 73 73 73 72 72 72 71 71 70 71 71 71 72 73 74 74 75 76 78 80 82 84 86 87 88 89 89 88 87 85 84 82 81 81 81 81 80 80 78 76 74 70 68 65 62 59 58 56 54 53 52 51 51 50 52 53 54 57 60 63 65 66 67 68 67 65 64 62 60 59 57 56 55 55 55 56 57 59 61 64 67 70 72 75 77 77 78 78 76 74 71 68 65 62 58 56 54 53 52 52 52 52 53 53 54 54 54 54 54 55 55 56 57 59 60 60 61 61 62 62 62 62 61 62 61 62 63 63 63 62 62 62 61 62 62 63 64 65 66 66 65 64 63 61 59 58 57 57 57 58 60 61 63 65 66 67 66 66 65 64 63 62 61 61 61 61 61 61 62 61 62 62 63 63 65 65 65 63 62 60 59 59 60 62 63 64 65 64 64 64 64 64 63 63 63 63 63 63 63 63 62 62 60 60 59 58 58 58 58 59 59 60 61 63 64 64 64 64 64 63 63 61 59 56 53 51 50 51 53 57 61 64 68 70 72 73 73 70 67 63 60 58 58 57 58 58 60 62 66 71 77 83 87 89 90 88 85 80 74 68 62 59 57 55 55 55 55 56 57 57 57 57 57 56 56 57 58 59 61 63 65 68 70 72 73 72 69 65 59 56 53 53 52 52 53 53 53 52 52 52 52 51 52 51 51 51 51 51 52 52 52 51 51 51 50 51 51 51 52 51 51 51 51 51 50 50 50 50 50 50 49 49 50 50 50 50 50 50 50 50 50 50 50 50 50 51 51 51 51 51 51 51 51 51 51 51 51 51 51 52 52 52 51 51 51 52 51 51 51 50 51 52 52 54 55 54 54 53 53 53 53 52 52 52 51 51 51 51 51 51 51 51 51 51 51 50 50 50 50 50 49 49 48 49 48 48 48 49 49 49 49 49 49 50 50 51 51 51 51 51 51 50 50 49 49 48 48 47 47 47 46 46 46 46 46 46 46 46 47 47 47 47 48 47 48 48 48 48 48 48 48 48 49 49 50 51 51 51 51 50 50 50 50 50 50 51 51 52 52 52 52 51 51 51 50 50 50 49 49 49 49 49 49 49 50 50 50 50 50 50 50 50 50 50 50 49 49 49 49 48 48 47 47 47 48 48 49 49 49 49 49 49 49 49 50 50 51 51 51 50 50 50 50 50 50 51 51 51 51 51 50 51 51 51 52 53 53 54 54 53 52 50 49 48 47 48
93 93 92 92 91 92 92 91 91 91 90 90 90 89 89 89 89 89 90 90 91 91 91 91 92 92 92 92 92 92 93 93 93 94 93 94 94 94 94 94 95 95 95 95 95 94 94 94 94 94 94 93 93 93 92 93 93 94 94 94 94 95 95 95 95 94 93 93 93 93 93 93 94 94 94 94 93 92 91 91 90 89 89 88 88 87 86 86 86 86 86 86 86 86 86 86 86 86 85 85 84 84 83 82 82 81 81 81 81 81 81 81 81 81 80 80 80 80 79 79 79 78 78 78 78 77 77 77 77 77 78 78 78 79 79 79 79 78 79 79 79 79 79 79 78 78 77 77 76 76 76 77 77 77 77 78 78 77 77 77 77 77 76 76 76 76 75 75 75 75 75 76 76 76 77 77 77 77 77 77 76 76 76 76 75 75 76 76 76 76 76 76 75 75 75 75 75 76 76 76 77 78 78 78 79 78 79 79 78 78 78 77 77 77 77 78 78 79 80 80 81 81 82 82 84 84 84 83 82 81 81 80 79 79 79 80 80 81 81 82 82 82 82 81 81 81 81 81 81 80 79 79 79 79 79 79 79 79 79 79 80 80 81 81 82 82 82 83 83 83 84 84 85 85 85 85 86 86 86 86 86 86 85 84 84 84 84 85 85 86 87 87 88 89 89 90 91 92 92 91 89 88 86 84 81 79 77 76 75 74 74 73 73 73 72 72 72 73 73 73 73 73 73 74 74 75 75 75 76 77 77 77 77 77 76 76 75 75 75 75 75 76 77 78 78 78 78 76 76 75 73 71 69 67 65 64 63 64 65 66 66 66 66 65 64 64 63 62 63 62 62 62 62 63 65 67 69 74 78 81 84 85 85 85 83 82 79 78 75 73 70 68 65 62 59 56 54 51 51 50 51 52 54 57 60 63 65 66 67 68 68 68 67 67 67 68 69 71 72 73 74 75 75 75 75 74 74 74 73 73 72 72 71 70 70 71 70 71 72 72 73 73 74 75 76 79 81 83 86 87 88 89 89 88 87 86 84 82 81 81 81 81 81 81 79 77 74 71 68 64 62 59 57 55 53 52 51 51 50 50 51 52 54 56 59 62 64 66 67 68 66 65 63 61 60 59 57 56 56 55 56 56 58 60 62 64 66 69 72 74 76 77 77 77 76 75 72 69 66 63 59 56 55 53 53 52 52 53 53 54 55 55 55 54 55 55 56 57 58 59 60 61 61 62 62 61 61 61 61 62 62 62 63 63 62 62 62 62 61 61 62 63 64 65 65 66 65 64 64 62 60 58 58 57 58 58 60 61 63 65 65 66 65 65 64 63 62 62 61 61 61 60 61 61 62 62 62 62 63 64 64 65 65 63 62 60 59 59 60 61 62 64 64 64 65 65 65 64 64 63 63 63 62 63 63 63 62 61 61 60 59 58 58 58 58 58 59 60 61 62 63 64 64 64 64 64 64 62 60 57 54 52 51 51 53 55 58 61 64 66 67 68 67 66 63 60 59 57 57 57 58 60 62 66 71 76 82 86 89 90 89 86 81 75 69 64 59 56 55 55 55 55 56 56 57 57 56 56 56 56 55 56 57 58 61 64 68 71 75 77 78 77 74 69 62 57 55 53 53 53 53 53 53 53 52 52 52 51 51 51 51 51 51 52 52 52 52 51 51 51 51 51 51 51 51 51 51 51 51 51 50 50 50 50 50 49 49 49 49 50 50 50 50 51 50 50 50 50 50 50 51 51 51 51 51 51 51 52 51 51 51 51 51 51 51 51 51 51 51 51 51 51 51 51 50 50 51 52 52 53 54 54 54 53 53 52 52 52 52 52 51 51 52 51 52 51 51 51 51 51 50 50 50 50 50 50 50 50 49 49 49 48 49 49 49 49 49 49 49 49 50 50 50 51 51 51 51 51 50 50 50 49 49 49 48 47 47 46 46 46 46 46 46 46 46 47 47 47 47 48 48 47 48 48 48 48 48 48 49 49 50 51 51 51 50 50 50 50 50 50 50 51 52 52 52 52 52 52 51 51 51 50 49 50 50 49 49 49 49 49 50 50 50 50 50 50 51 50 50 50 50 50 49 49 49 48 47 47 47 47 47 48 49 49 50 49 49 49 48 49 49 50 50 50 50 50 49 49 50 50 50 51 51 51 51 50 50 50 50 51 52 53 54 54 54 53 52 51 50 49 48 48
92 92 92 92 91 91 91 92 91 91 90 90 90 89 89 89 89 89 90 90 91 91 92 92 92 92 92 92 92 92 92 93 93 93 93 94 94 94 94 95 95 95 95 95 95 94 94 94 94 93 93 93 93 93 92 93 93 94 94 94 94 94 94 94 94 94 93 93 93 93 93 93 94 94 94 93 93 92 91 91 91 90 89 89 88 88 87 87 86 86 86 86 85 85 86 86 86 85 86 85 84 84 83 82 82 81 82 81 81 81 81 81 81 81 80 80 80 79 79 79 79 78 78 78 78 78 78 77 78 78 78 78 78 78 78 79 79 79 79 79 79 80 79 79 78 78 77 77 77 76 76 77 77 78 78 78 78 77 78 77 77 77 76 76 76 76 76 75 75 75 76 76 76 77 77 77 77 77 77 77 77 77 77 76 76 76 76 76 77 76 76 76 75 76 75 75 76 76 76 77 78 78 78 79 79 79 80 79 79 78 78 77 77 77 78 78 79 79 80 80 81 81 81 82 83 83 83 83 82 81 80 80 80 79 80 80 80 81 82 82 82 82 82 82 81 81 81 81 81 80 80 80 80 79 79 79 80 80 80 80 80 81 81 81 82 83 83 83 83 83 83 83 84 84 84 85 85 86 86 86 86 86 85 84 84 84 84 84 85 85 86 87 88 88 88 89 90 90 90 90 89 87 86 84 81 79 77 75 73 72 72 72 72 72 72 72 73 73 73 74 74 74 74 75 75 75 76 76 77 77 78 78 77 77 76 75 76 76 75 75 76 77 77 77 78 78 77 76 75 74 73 71 69 67 65 64 64 64 65 66 67 66 66 65 64 63 62 62 62 62 62 63 64 65 66 68 70 74 78 81 83 84 85 85 83 81 80 77 75 72 70 67 64 62 58 56 53 52 51 52 52 53 56 59 61 64 66 68 68 69 69 68 68 68 69 69 70 72 74 75 76 77 77 76 75 75 74 74 73 73 72 71 71 70 70 70 70 71 71 72 72 72 72 73 75 77 80 83 86 87 88 89 89 88 87 85 84 82 81 81 82 82 82 82 80 78 75 71 68 64 61 58 56 54 53 51 50 49 50 50 51 52 54 56 59 61 64 66 67 67 66 64 63 61 60 58 57 57 56 55 56 57 58 59 62 64 66 68 71 73 75 76 77 77 76 75 73 70 67 63 60 57 55 54 53 53 53 53 54 55 55 55 56 55 56 56 57 58 59 60 61 61 62 62 62 62 61 61 61 62 62 62 62 62 62 62 61 62 61 61 62 63 64 65 65 66 65 65 63 62 61 59 58 58 58 59 60 62 63 64 65 65 65 65 64 63 62 61 61 61 60 61 61 61 62 62 62 63 63 64 65 65 64 63 62 60 59 59 59 60 62 63 64 65 65 65 65 65 64 63 63 62 62 62 63 62 62 61 60 60 59 58 58 58 58 59 59 60 61 62 63 64 64 64 64 65 64 63 61 58 56 54 52 52 53 55 57 59 62 63 64 65 64 62 61 59 58 57 57 57 59 62 66 70 75 80 85 88 89 89 87 82 76 70 64 59 57 54 54 54 55 56 56 57 57 57 56 56 55 55 55 55 56 59 62 66 71 75 78 82 83 82 78 72 66 60 56 54 54 53 54 53 53 52 52 52 51 51 51 51 51 51 52 52 52 52 52 52 52 51 51 50 51 50 51 51 51 51 51 51 50 50 50 50 49 49 49 49 50 50 50 50 50 50 50 50 50 50 50 51 50 50 51 51 52 52 51 52 51 51 51 51 50 50 50 51 51 51 51 51 51 51 51 51 50 50 50 51 52 53 53 53 53 53 52 52 52 52 52 51 51 51 51 51 51 51 51 51 51 51 50 50 50 50 50 51 50 51 50 49 49 49 49 49 49 49 49 49 49 49 49 49 50 50 51 51 51 51 51 50 50 50 50 49 49 49 48 47 46 46 46 46 46 46 46 47 47 47 47 48 48 48 48 48 48 48 48 48 49 49 49 50 50 50 50 50 50 50 50 50 51 51 52 53 53 52 52 52 52 51 51 50 50 49 50 49 49 49 49 50 50 50 50 51 51 51 51 51 50 50 50 50 50 49 49 48 48 47 47 47 47 48 49 49 49 49 49 49 48 48 49 49 49 50 50 50 49 49 50 50 50 51 51 51 51 50 50 50 50 50 52 53 53 54 54 54 53 52 51 50 50 49
93 92 92 92 92 92 92 92 92 91 91 90 90 89 89 89 89 90 90 91 92 91 92 93 92 92 93 92 92 93 93 92 93 93 93 93 93 94 94 94 95 95 95 95 95 94 94 93 93 93 93 93 93 92 93 92 92 93 93 94 94 94 94 93 93 94 93 93 93 93 93 93 93 93 93 93 92 92 91 91 91 90 90 89 89 88 88 87 87 86 86 86 85 85 86 86 85 85 85 85 84 84 83 82 81 81 81 81 81 81 81 81 81 81 81 80 80 80 79 79 79 78 78 78 78 78 78 78 78 78 78 78 78 78 78 78 79 79 79 79 80 79 79 79 78 78 77 77 77 77 77 77 78 78 78 78 78 78 78 78 77 77 77 77 77 76 76 76 76 76 76 76 77 77 78 78 78 78 78 78 78 78 77 77 77 77 77 77 77 77 77 76 76 76 76 76 76 77 77 77 79 79 79 79 80 80 80 80 79 78 78 78 78 77 78 78 79 79 80 80 81 81 81 82 83 83 83 82 81 81 80 80 79 80 80 80 80 81 81 82 82 82 82 82 82 81 81 81 81 81 80 80 80 80 80 80 81 81 81 81 81 81 82 82 82 82 83 83 83 83 83 82 82 82 84 84 85 85 86 86 86 86 85 84 83 83 83 84 85 85 86 87 87 87 88 88 88 88 88 88 88 86 85 84 81 78 76 74 72 71 71 71 72 72 72 73 73 73 74 74 75 74 75 75 75 75 75 76 77 77 77 77 77 76 76 75 75 75 75 75 76 77 76 77 77 77 76 76 75 74 73 71 69 67 65 64 64 65 66 67 67 67 66 65 64 63 62 61 61 62 63 64 65 66 67 69 71 74 77 80 82 84 85 84 83 82 80 78 75 72 69 66 64 61 58 56 55 54 53 53 54 55 57 60 63 66 67 69 70 70 70 70 70 70 71 71 72 74 75 77 78 78 78 77 76 75 75 74 73 72 72 71 71 70 70 70 70 71 71 70 70 70 70 71 73 76 79 82 85 87 88 89 89 88 87 85 84 82 81 81 81 83 83 82 80 79 75 72 68 64 60 58 56 54 52 50 50 49 49 50 50 52 54 57 59 62 64 66 67 67 66 64 62 61 59 58 57 56 56 56 56 57 59 60 62 63 66 67 70 72 74 76 76 77 76 75 74 71 68 64 60 57 55 54 53 53 53 54 55 56 56 57 57 56 57 57 57 58 59 61 61 62 62 62 62 62 62 61 61 61 62 62 62 62 62 62 61 61 61 61 62 62 64 65 65 65 65 65 64 63 61 60 59 58 58 59 60 62 63 63 64 65 64 64 63 62 62 61 61 61 61 61 61 61 61 62 62 63 64 64 65 65 64 63 61 60 59 58 59 60 62 63 64 65 66 67 66 65 64 63 62 62 62 62 62 63 62 61 61 60 59 58 58 58 58 59 59 59 60 62 63 64 64 65 64 65 64 63 62 60 58 55 54 54 54 55 57 58 60 61 61 62 61 61 59 58 57 57 57 58 60 64 69 74 80 84 88 89 89 87 83 78 71 65 60 57 55 54 55 55 56 56 57 57 57 57 56 55 54 54 54 55 57 60 65 69 74 78 82 85 86 85 81 74 68 63 59 57 55 55 54 54 54 53 52 51 51 51 51 51 51 51 51 52 52 52 52 52 52 51 51 51 50 50 50 50 50 50 50 51 50 51 51 50 50 50 50 50 50 50 50 50 50 50 50 50 50 50 50 50 51 51 51 52 52 52 51 51 51 51 51 51 51 50 50 50 51 51 51 51 51 51 51 51 51 50 51 51 52 53 53 53 53 53 52 52 52 52 51 51 51 51 51 51 51 51 51 51 51 50 50 50 50 50 50 51 51 51 50 50 49 49 49 49 49 49 49 49 49 49 49 49 49 50 50 51 51 51 50 50 50 50 50 50 50 50 49 47 47 46 46 46 46 46 46 47 47 47 48 47 47 48 48 48 48 48 48 48 48 48 49 49 50 50 50 50 50 50 49 49 50 51 52 52 52 52 53 52 52 51 51 50 50 50 49 49 49 49 49 50 50 51 51 51 51 51 51 51 51 51 50 50 50 49 49 48 48 47 47 47 48 48 49 49 49 49 49 49 49 49 48 49 49 49 49 49 49 49 49 50 50 50 50 50 50 49 49 49 50 50 51 52 54 54 54 54 53 53 52 51 50 50
93 92 92 92 92 92 93 92 92 92 91 90 90 90 89 89 90 90 91 91 92 92 93 92 93 92 92 93 92 93 93 93 93 93 93 93 93 94 94 94 95 96 95 95 95 94 94 93 93 93 92 92 92 92 92 92 92 93 93 93 94 94 93 94 94 94 94 93 93 93 94 94 93 93 93 93 93 92 92 92 92 91 90 90 89 88 88 87 87 87 86 86 85 85 85 85 85 85 85 84 84 83 82 82 82 81 81 81 81 81 81 81 81 81 80 80 80 80 79 79 79 79 78 78 78 78 77 78 78 78 77 78 78 78 78 78 79 79 79 79 79 79 79 79 78 78 78 77 77 77 77 77 77 78 78 78 78 78 78 77 77 77 77 77 77 77 77 77 76 76 76 77 78 78 79 79 78 78 79 79 78 79 79 78 78 77 77 77 77 76 76 76 76 76 77 77 77 78 78 78 79 79 80 80 80 80 81 80 79 78 78 78 77 78 78 78 79 80 80 80 80 80 81 81 82 82 82 82 82 81 80 80 79 80 79 80 80 80 82 82 82 83 82 82 82 81 81 82 82 81 81 81 81 81 81 81 81 81 81 82 82 82 83 82 82 83 83 83 83 83 82 82 82 82 82 83 84 85 85 86 86 86 85 84 84 84 83 84 84 85 86 87 87 87 87 86 86 87 87 87 87 85 85 83 81 78 75 73 72 70 70 70 71 71 71 73 73 74 74 75 75 75 75 75 75 75 75 76 76 77 77 77 77 76 75 75 75 75 75 76 76 76 76 76 76 76 76 75 74 73 72 71 69 67 65 64 65 65 66 67 67 67 65 64 64 63 61 61 61 62 63 64 66 67 68 70 72 75 77 79 82 83 84 84 83 82 80 78 76 73 69 66 64 61 59 57 56 55 55 55 56 57 59 61 64 67 69 71 71 72 72 72 72 72 72 73 74 75 77 78 79 80 79 78 76 75 74 73 72 72 71 70 69 70 70 69 70 70 70 69 69 68 69 70 72 75 78 81 84 86 87 88 88 88 86 84 83 82 81 81 82 82 82 82 80 78 75 72 67 63 60 57 55 53 51 50 49 49 49 49 50 52 54 57 59 62 64 66 67 66 65 64 62 60 59 58 58 57 56 56 57 58 59 60 62 63 65 66 69 71 73 74 75 76 76 75 74 71 68 64 61 58 56 54 53 53 54 54 55 56 57 58 58 58 58 58 58 59 60 60 62 62 62 63 63 63 62 62 62 62 62 62 61 61 61 60 60 61 60 61 62 62 63 64 65 65 65 65 64 63 62 61 60 59 59 59 60 61 62 63 63 63 64 64 63 62 61 60 61 61 61 61 62 61 61 62 62 63 63 63 64 64 64 62 61 59 58 58 59 60 61 63 65 66 67 67 67 66 65 63 62 62 61 62 62 63 63 62 61 60 60 59 58 58 58 59 59 59 60 61 63 63 64 64 65 65 65 64 63 61 59 57 56 55 55 55 56 58 59 60 60 60 60 59 59 57 57 56 57 59 63 68 74 79 84 87 89 89 87 84 78 73 66 61 57 55 54 54 55 57 57 58 58 57 57 56 56 55 54 54 55 57 59 63 68 72 77 82 86 88 88 86 82 76 71 66 63 61 59 58 57 56 55 53 52 51 50 50 51 51 51 51 51 52 52 52 52 52 52 52 51 51 50 50 50 50 50 50 50 50 51 51 51 51 51 50 50 49 49 49 49 50 50 50 50 50 50 50 50 50 51 51 51 51 52 51 51 51 52 51 51 51 51 51 50 50 51 51 51 51 51 51 51 51 51 51 51 52 52 52 53 52 52 52 52 52 52 52 51 51 51 51 51 51 51 51 51 51 51 50 50 50 50 50 51 51 51 51 51 50 50 49 49 50 49 49 49 49 49 49 49 49 48 49 49 50 50 50 50 50 50 50 50 51 51 50 50 48 48 47 46 46 46 46 46 46 47 47 47 47 48 48 48 48 48 48 48 48 48 48 49 49 49 49 50 49 49 49 49 49 50 50 51 52 52 53 52 52 52 51 51 50 50 50 50 49 49 49 49 50 50 51 51 51 51 51 51 50 51 51 51 50 50 50 50 49 49 48 47 47 48 48 49 49 50 50 49 49 49 48 48 48 48 48 48 49 49 49 49 49 50 50 50 49 49 49 49 48 49 50 51 52 53 54 54 54 54 54 53 53 52 51
93 93 93 93 93 93 93 93 92 92 91 91 90 90 90 90 90 90 91 92 92 92 93 93 93 93 93 92 92 92 93 93 93 93 93 93 94 94 94 95 95 95 95 95 94 94 93 93 93 92 92 92 92 92 92 92 92 92 93 93 93 93 93 94 94 94 94 94 94 94 94 94 93 93 94 93 93 92 92 92 91 91 90 90 89 88 88 87 87 86 86 85 85 85 84 84 85 84 84 84 83 83 82 82 81 81 81 81 82 81 81 81 81 81 80 80 80 80 79 79 79 79 79 78 78 78 78 78 78 78 78 78 77 78 78 79 79 79 80 80 80 80 79 79 78 78 78 78 77 77 77 78 78 78 78 78 78 78 78 78 78 78 78 78 78 78 77 77 77 77 77 78 78 79 79 79 79 79 79 79 80 80 79 79 79 78 77 76 76 76 76 76 76 77 77 78 78 79 79 79 80 80 80 80 81 81 80 80 79 79 78 78 77 78 78 78 79 80 80 80 80 80 80 81 81 81 82 82 81 81 80 80 80 80 80 80 80 81 81 81 82 82 82 82 82 81 81 82 82 82 82 82 81 81 81 81 81 81 81 81 83 83 83 83 83 83 83 84 83 83 82 82 81 82 82 83 83 84 85 86 87 86 85 84 85 84 84 84 84 85 86 87 87 87 86 85 85 85 85 85 85 84 84 82 80 78 75 73 71 70 70 70 70 71 72 73 73 74 74 75 75 74 75 74 75 75 75 75 75 76 77 77 77 76 76 75 75 75 75 76 76 77 76 76 76 76 76 75 74 73 72 70 69 67 66 65 66 66 67 67 67 66 66 65 64 62 61 61 61 61 63 65 66 67 69 70 72 74 77 79 81 82 83 84 83 82 81 79 77 73 70 67 64 62 60 58 58 57 56 57 58 59 61 63 66 68 70 72 73 73 73 74 74 74 74 75 76 77 78 79 80 80 79 78 76 75 74 73 72 71 70 69 69 69 69 69 69 68 68 68 68 67 67 69 71 73 76 80 83 85 86 87 88 87 86 84 82 82 81 81 82 82 82 82 80 78 75 71 67 63 59 56 53 51 50 49 48 48 48 49 50 52 54 57 59 62 63 65 67 66 65 63 62 60 59 58 57 56 56 57 58 58 59 60 62 63 64 66 68 70 71 73 75 76 75 75 73 71 68 65 61 58 56 54 54 53 53 54 55 57 57 59 59 59 58 59 59 59 60 61 62 62 63 63 63 63 63 62 62 62 62 61 61 60 60 60 59 60 60 61 61 62 63 64 64 65 65 65 64 64 63 62 61 60 60 60 60 61 61 62 62 63 63 62 62 61 60 61 61 62 62 62 62 62 61 62 62 62 62 63 63 63 63 62 61 59 59 59 59 61 62 63 65 66 67 67 68 67 65 64 63 62 61 62 62 63 63 62 62 61 60 58 58 58 59 59 59 59 60 61 62 63 64 64 65 65 65 64 64 62 60 58 57 56 56 56 57 57 58 58 59 59 59 59 58 57 57 57 58 61 65 71 77 83 87 89 89 88 84 80 74 67 62 57 55 54 54 55 56 58 58 58 58 58 57 56 55 54 54 54 56 58 62 67 71 76 81 85 88 90 89 87 83 78 74 70 68 66 64 62 60 58 56 54 53 52 51 50 51 51 51 51 51 51 52 52 52 52 52 52 51 51 50 50 50 50 50 50 50 51 51 51 51 51 51 50 50 49 49 49 50 50 50 50 50 50 50 50 51 51 51 52 51 52 52 51 51 51 52 51 51 51 51 51 51 51 51 51 51 52 51 52 51 51 51 51 51 52 52 52 52 52 52 52 52 52 52 52 52 52 51 51 51 51 51 51 51 51 51 50 50 50 50 51 51 51 51 51 51 50 50 50 49 50 50 50 50 50 49 48 48 48 48 48 49 49 50 49 50 50 50 50 51 50 51 51 50 49 48 47 46 46 46 46 46 46 47 47 47 47 47 48 48 48 48 48 48 48 48 48 49 49 49 49 49 49 48 49 49 49 49 50 50 51 51 52 52 52 52 52 51 51 50 50 50 50 50 49 49 50 50 50 50 50 50 50 50 50 50 51 51 51 51 51 50 49 49 48 48 47 48 48 49 50 50 50 49 49 48 49 49 48 48 49 49 49 49 49 49 49 49 49 49 49 49 48 48 48 48 49 51 52 53 54 54 54 55 55 54 53 53 52
93 93 93 93 93 93 93 93 93 92 92 91 91 91 90 90 91 91 91 92 93 93 93 93 93 93 93 93 92 93 93 93 93 94 94 94 94 94 94 95 95 96 95 95 94 94 93 93 92 92 92 92 92 92 92 92 92 92 92 93 93 94 93 94 94 95 95 95 95 95 95 94 94 94 94 93 93 92 92 91 91 91 90 90 89 89 88 87 86 86 85 85 85 84 85 84 84 84 84 83 83 82 82 81 81 81 81 82 82 82 81 81 81 80 80 80 80 79 79 79 79 79 78 79 78 78 78 78 78 78 78 78 77 78 78 79 79 80 80 80 80 80 79 79 79 78 78 78 78 78 78 78 78 78 78 78 78 78 78 78 78 78 79 79 78 78 77 77 77 77 77 78 78 79 80 80 80 80 80 80 80 80 80 79 79 78 77 76 76 76 76 76 76 77 77 78 78 79 79 80 80 80 81 81 81 81 81 80 80 79 78 78 77 77 78 79 79 80 80 80 80 80 80 80 81 81 81 81 81 81 81 80 80 80 80 80 80 80 81 81 81 82 82 81 81 81 81 81 82 81 82 82 81 81 81 81 81 80 81 82 82 83 83 83 83 83 84 83 83 83 82 82 81 81 82 82 83 84 85 86 86 86 86 85 84 84 84 84 84 85 87 87 87 86 85 84 83 83 83 84 84 83 83 82 80 77 75 72 71 70 69 70 71 71 72 73 74 74 74 75 75 75 75 75 75 74 74 74 74 75 76 76 76 76 76 76 76 76 76 77 77 77 77 77 76 76 75 75 73 73 71 70 69 68 67 66 66 67 67 68 67 67 66 65 63 62 61 60 60 61 63 64 66 68 69 71 72 75 77 78 81 82 82 83 83 83 82 80 78 75 71 68 65 63 61 60 59 59 58 59 60 61 63 64 67 70 72 73 74 75 75 76 76 76 76 76 77 78 79 80 80 79 79 77 76 74 73 72 71 70 69 68 69 69 68 68 67 67 67 67 66 66 67 68 70 73 76 79 82 84 86 87 86 86 85 83 82 82 82 81 82 82 82 81 80 78 74 70 66 62 58 55 53 51 49 48 47 47 48 49 50 51 54 56 59 62 63 65 66 66 65 63 62 61 60 58 57 57 57 57 58 59 59 61 62 63 64 65 67 69 71 72 74 75 75 74 72 70 68 65 62 59 56 55 54 53 54 54 55 57 58 59 60 60 60 60 60 60 61 61 62 63 63 63 63 63 63 63 63 63 62 61 60 60 59 59 59 59 60 60 61 62 63 64 64 65 64 65 65 64 64 63 62 61 60 60 60 60 61 61 61 62 62 62 61 61 60 60 61 62 62 62 63 62 62 62 62 62 62 62 62 62 62 61 60 60 59 59 60 62 63 63 65 66 67 68 68 67 65 64 62 61 62 61 62 63 63 63 62 61 60 59 58 58 58 59 59 59 60 60 61 63 64 64 65 65 65 64 64 63 61 59 58 57 56 56 56 56 56 57 57 58 58 58 58 58 57 57 59 62 67 73 80 86 89 90 89 86 81 75 69 63 58 55 54 54 55 56 58 60 60 60 59 58 57 56 55 54 54 55 57 61 65 70 75 80 84 88 90 91 90 87 84 81 77 75 73 72 71 68 65 62 59 56 54 52 51 51 51 51 51 51 51 51 51 51 52 52 52 52 51 51 50 50 50 50 50 50 50 51 51 52 52 52 51 51 50 50 50 49 49 50 50 50 50 51 50 50 50 51 51 51 51 51 51 51 52 51 51 52 52 52 51 51 51 51 51 51 51 52 52 52 52 51 51 51 51 51 51 51 51 51 52 52 52 52 53 52 52 52 52 51 51 51 51 51 51 51 51 50 50 51 50 51 51 51 51 51 51 50 50 50 50 50 50 50 50 49 49 49 48 48 48 48 48 49 49 49 49 50 50 50 50 51 51 51 51 50 49 49 48 47 46 46 46 47 47 47 47 47 47 47 48 48 48 48 48 48 48 48 48 48 49 49 48 48 48 48 48 49 49 49 50 50 50 51 51 51 52 51 51 51 51 50 50 50 49 49 49 49 49 50 50 50 50 49 50 50 50 50 51 51 51 51 51 50 50 49 48 48 48 49 49 50 50 49 49 49 49 49 49 49 48 49 48 49 49 49 49 49 49 50 49 49 48 48 47 47 48 49 50 51 52 53 53 54 54 55 54 54 53 53
