0 0 0 0 0 0 0 0 0 0 0 0 0 0 0 0 0 0 0 0 0 0 0 0 0 0 0 0 0 0 0 0 0 0 0 0 0 0 0 0 0 0 0 0 0 0 0 0 0 0 0 0 0 0 0 0 0 0 0 0 0 0 0 0 0 0 0 0 0 0 0 0 0 0 0 0 0 0 0 0 0 0 0 0 0 0 0 0 1 1 2 7 9 11 7 31 45 52 51 48 43 40 39 36 36 34 35 37 42 44 43 39 35 33 32 31 31 30 30 29 30 31 32 33 33 34 35 34 35 34 33 33 33 33 33 33 32 32 33 34 33 33 33 34 35 35 36 36 36 37 38 38 38 38 39 40 40 41 40 39 39 40 40 42 43 43 44 42 42 42 42 42 44 47 50 51 49 46 43 43 43 43 44 44 45 46 47 47 46 47 45 43 36 35 37 42 49 46 43 41 41 41 40 39 38 39 40 41 41 40 40 40 40 39 38 37 37 38 37 37 36 35 34 34 34 33 32 33 33 32 32 32 33 33 33 31 30 31 32 31 32 33 34 35 35 34 33 33 32 33 33 33 32 33 33 34 34 34 36 36 36 36 35 35 36 39 39 39 36 36 35 34 35 35 35 35 35 34 33 32 32 32 32 33 33 34 34 35 35 37 38 37 34 34 34 34 34 34 34 33 32 32 31 32 33 34 35 37 38 38 38 37 37 36 35 34 34 33 32 31 31 32 33 34 35 35 36 37 35 36 35 36 38 38 38 38 39 39 39 39 39 40 41 41 41 41 41 41 39 39 39 39 39 39 40 40 40 40 40 39 38 37 36 36 36 36 36 36 37 36 35 35 36 36 37 38 38 35 36 38 38 38 37 38 40 41 41 40 41 42 42 41 41 42 43 44 44 44 44 43 42 43 46 47 48 48 50 50 51 48 47 46 45 44 44 43 42 42 43 44 46 47 48 48 47 47 47 49 51 48 46 46 46 47 48 44 46 47 47 46 42 41 42 44 46 46 46 47 46 44 45 47 47 46 46 46 48 48 48 47 46 45 45 45 46 46 45 43 42 42 43 43 44 44 45 46 47 48 50 51 52 50 50 50 48 47 46 44 43 42 41 38 36 34 34 35 36 36 38 40 41 39 38 35 33 33 34 35 35 36 34 34 34 33 33 32 31 31 30 29 31 31 32 31 32 31 30 31 32 32 33 35 36 35 31 30 30 31 33 34 32 31 30 30 30 32 34 35 36 37 35 36 35 34 33 32 30 29 29 31 30 30 29 28 29 28 28 30 31 32 29 27 27 29 29 28 26 26 28 28 28 27 27 28 29 28 25 25 25 26 25 25 23 24 25 26 26 29 31 29 29 30 31 31 30 31 32 32 30 31 32 28 27 30 31 30 31 32 31 31 33 35 37 37 38 40 41 42 44 45 48 50 52 47 36 22 18 19 16 10 6 1 0 0 0 0 0 0 0 0 0 0 0 0 0 0 0 0 0 0 0 0 0 0 0 0 0 0 0 0 0 0 0 0 0 0 0 0 0 0 0 0 0 0 0 0 0 0 0 0 0 0 0 0 0 0 0 0 0 0 0 0 0 0 0 0 0 0 0 0 0 0 0 0 0 0 0 0 0 0 0 0 0 0 0 0 0 0 0 0
0 0 0 0 0 0 0 0 0 0 0 0 0 0 0 0 0 0 0 0 0 0 0 0 0 0 0 0 0 0 0 0 0 0 0 0 0 0 0 0 0 0 0 0 0 0 0 0 0 0 0 0 0 0 0 0 0 0 0 0 0 0 0 0 0 0 0 0 0 0 0 0 0 0 0 0 0 0 0 0 0 0 0 0 0 0 0 0 0 1 3 13 11 13 29 44 51 53 50 46 40 39 39 36 35 34 36 38 41 42 40 37 34 32 31 31 30 29 29 29 29 31 33 33 33 33 34 35 34 33 33 33 32 32 32 33 32 32 33 33 33 33 34 34 35 36 37 37 37 38 38 39 39 38 39 39 38 38 38 37 38 39 40 40 40 40 40 39 40 40 41 43 46 49 49 50 50 47 43 43 43 42 42 43 44 46 46 45 45 45 45 43 38 38 40 44 48 44 41 41 41 40 40 39 38 38 39 40 40 39 40 40 41 39 38 37 37 38 37 37 35 35 34 33 34 33 33 33 33 32 32 31 31 31 31 29 28 31 32 32 32 33 34 34 34 33 33 34 34 34 33 33 33 34 34 35 34 34 36 37 37 36 36 36 36 36 36 35 33 34 34 34 35 35 35 35 35 34 34 33 33 32 32 32 33 33 35 36 36 36 36 37 34 34 34 35 34 33 33 32 32 32 32 33 33 35 37 39 39 39 38 37 36 36 35 34 33 32 31 30 30 32 33 33 34 34 35 35 35 36 36 37 38 38 38 38 39 39 39 40 40 41 42 42 42 41 40 40 39 40 39 39 39 39 40 40 40 40 40 39 38 37 36 36 36 37 36 36 37 36 35 35 36 37 38 37 35 35 37 38 39 39 37 38 41 42 42 41 42 42 42 41 41 42 43 44 44 44 44 44 44 44 45 45 46 47 50 51 51 48 46 45 44 44 44 43 42 43 44 46 47 48 48 47 46 45 45 46 48 45 44 44 45 45 45 43 45 47 47 47 45 44 44 45 46 46 47 49 50 47 46 46 46 45 46 46 44 45 46 46 44 44 45 45 46 46 46 44 44 43 43 42 42 42 43 45 46 47 49 51 51 50 51 51 50 48 47 44 44 43 41 38 37 35 36 36 35 36 38 40 39 37 35 33 32 33 34 35 34 34 32 31 32 31 31 31 31 30 30 30 32 31 31 31 31 30 29 30 31 31 31 33 35 35 31 30 29 31 33 33 32 31 31 31 29 31 32 35 36 37 36 36 35 34 33 33 31 29 28 29 31 31 29 29 30 31 31 29 30 31 30 27 28 30 30 28 26 27 29 30 29 28 28 28 28 29 24 24 24 26 25 26 25 25 24 26 26 27 28 28 27 28 30 31 30 30 32 32 32 32 31 29 27 28 30 30 31 31 31 30 34 36 38 40 39 39 39 40 42 43 44 46 49 49 45 31 22 21 24 14 10 3 0 0 0 0 0 0 0 0 0 0 0 0 0 0 0 0 0 0 0 0 0 0 0 0 0 0 0 0 0 0 0 0 0 0 0 0 0 0 0 0 0 0 0 0 0 0 0 0 0 0 0 0 0 0 0 0 0 0 0 0 0 0 0 0 0 0 0 0 0 0 0 0 0 0 0 0 0 0 0 0 0 0 0 0 0 0 0 0
0 0 0 0 0 0 0 0 0 0 0 0 0 0 0 0 0 0 0 0 0 0 0 0 0 0 0 0 0 0 0 0 0 0 0 0 0 0 0 0 0 0 0 0 0 0 0 0 0 0 0 0 0 0 0 0 0 0 0 0 0 0 0 0 0 0 0 0 0 0 0 0 0 0 0 0 0 0 0 0 0 0 0 0 0 0 0 0 2 5 8 16 10 23 43 52 52 52 48 44 41 39 37 34 34 35 38 38 39 39 37 35 33 31 30 30 29 28 28 29 30 32 33 34 34 35 35 35 33 33 33 32 31 31 32 33 32 32 32 33 33 33 33 33 34 35 37 38 38 38 38 38 39 38 38 39 38 38 38 37 39 40 40 40 39 40 40 40 39 40 41 44 46 49 48 49 48 46 43 44 45 44 43 43 44 45 44 45 45 46 46 46 42 43 44 45 43 41 41 41 41 41 40 39 38 38 38 40 40 40 40 40 40 38 37 37 36 36 35 35 35 35 34 33 34 34 33 33 32 32 31 30 30 31 32 32 30 32 33 33 34 34 34 34 34 33 34 34 35 34 33 33 33 34 34 34 33 34 36 37 37 36 37 36 37 35 35 34 33 33 34 34 35 34 34 34 34 34 34 34 33 32 32 32 33 34 35 36 36 36 36 36 34 33 35 35 34 33 33 32 33 33 33 34 34 36 38 40 39 38 37 36 36 36 35 34 33 32 31 30 30 32 33 34 33 33 34 35 35 37 38 38 39 39 38 38 39 39 39 40 40 41 42 42 42 40 39 39 39 39 39 39 38 38 39 39 40 40 40 39 38 37 36 36 36 37 37 37 37 36 35 35 36 38 38 37 34 37 38 38 39 38 38 39 41 42 42 41 42 43 42 42 42 42 43 44 45 45 46 47 46 46 47 46 47 48 52 52 51 49 47 45 44 43 43 43 43 44 45 46 46 47 47 46 45 43 45 48 48 47 45 44 43 42 43 43 46 48 46 46 44 45 46 46 45 46 49 52 51 48 46 47 47 46 46 46 44 44 43 43 43 45 46 45 45 46 45 45 45 44 44 43 43 41 43 45 48 50 51 52 51 49 50 51 52 51 49 46 44 42 40 38 37 37 37 36 37 37 38 39 37 35 34 33 32 34 34 35 34 34 33 32 32 31 31 30 30 29 29 29 30 30 30 31 31 30 30 29 31 31 31 33 34 34 31 29 29 29 31 33 32 32 32 31 30 30 33 35 35 37 37 37 36 34 33 32 31 30 28 28 30 31 30 29 30 31 33 31 29 29 31 27 28 29 29 27 24 26 28 30 28 27 27 28 29 30 26 25 25 27 27 27 25 25 24 25 26 24 26 27 26 28 28 30 31 31 32 33 32 32 31 30 29 28 28 30 32 35 34 31 33 37 39 40 41 41 39 40 41 42 42 43 45 48 48 41 27 22 24 19 15 7 1 0 0 0 0 0 0 0 0 0 0 0 0 0 0 0 0 0 0 0 0 0 0 0 0 0 0 0 0 0 0 0 0 0 0 0 0 0 0 0 0 0 0 0 0 0 0 0 0 0 0 0 0 0 0 0 0 0 0 0 0 0 0 0 0 0 0 0 0 0 0 0 0 0 0 0 0 0 0 0 0 0 0 0 0 0 0 0
0 0 0 0 0 0 0 0 0 0 0 0 0 0 0 0 0 0 0 0 0 0 0 0 0 0 0 0 0 0 0 0 0 0 0 0 0 0 0 0 0 0 0 0 0 0 0 0 0 0 0 0 0 0 0 0 0 0 0 0 0 0 0 0 0 0 0 0 0 0 0 0 0 0 0 0 0 0 0 0 0 0 0 0 0 0 0 1 2 7 14 8 21 38 51 53 51 51 47 43 40 38 36 33 34 36 38 38 37 37 35 33 32 31 30 30 29 28 29 29 31 32 32 33 33 35 35 33 32 33 33 32 31 31 32 32 32 32 33 33 33 33 32 32 33 35 36 38 37 37 37 38 38 38 38 39 39 39 38 38 39 40 40 40 40 41 41 41 40 40 42 44 45 47 47 48 47 46 44 45 46 45 43 42 43 44 44 44 44 46 46 46 43 42 42 42 40 40 39 39 41 41 40 38 37 38 38 39 40 40 40 40 38 37 36 36 35 35 34 34 34 35 34 33 34 34 34 33 33 32 32 30 29 31 34 34 32 32 33 35 36 35 34 35 34 33 34 34 35 34 34 33 33 32 33 33 33 34 36 37 37 37 37 37 36 34 34 33 33 32 33 33 34 34 33 33 33 34 34 34 32 33 33 33 34 36 36 36 36 35 35 35 35 35 36 36 34 33 32 31 32 32 33 34 36 38 39 40 39 38 36 36 36 36 34 34 33 32 32 31 32 33 34 34 33 33 34 35 37 38 39 39 40 41 40 40 40 40 40 40 40 40 41 41 41 39 38 38 37 38 37 37 37 37 38 39 41 41 39 38 38 38 37 37 37 37 38 38 39 38 37 37 38 39 39 38 35 37 37 37 38 38 39 41 42 42 42 42 42 43 44 44 42 42 43 44 46 46 46 48 48 48 48 46 46 47 50 52 51 51 49 46 45 44 43 42 43 43 45 46 46 46 46 46 45 42 44 48 49 46 43 42 43 43 43 44 47 49 46 46 47 48 48 47 47 48 50 51 50 48 44 46 46 46 46 47 44 42 40 40 41 43 44 44 45 45 44 44 44 43 45 44 42 41 42 45 48 50 52 52 51 49 49 49 50 50 49 47 44 43 42 39 38 39 39 39 38 37 38 37 35 33 32 31 31 32 32 33 33 32 32 32 31 30 30 30 30 29 29 28 28 29 30 30 31 32 32 31 30 31 33 34 34 34 32 30 29 28 29 31 32 33 33 31 32 32 35 38 37 37 37 38 37 34 32 31 31 31 29 29 30 31 31 29 29 30 32 31 30 29 31 27 26 28 29 28 26 26 27 29 27 26 27 29 30 31 28 26 26 28 28 28 26 27 25 23 25 25 26 26 26 27 27 29 31 32 34 35 32 32 30 30 29 27 28 30 32 39 38 34 33 30 36 39 41 41 41 40 41 42 42 42 41 44 46 47 38 28 22 22 20 13 5 2 0 0 0 0 0 0 0 0 0 0 0 0 0 0 0 0 0 0 0 0 0 0 0 0 0 0 0 0 0 0 0 0 0 0 0 0 0 0 0 0 0 0 0 0 0 0 0 0 0 0 0 0 0 0 0 0 0 0 0 0 0 0 0 0 0 0 0 0 0 0 0 0 0 0 0 0 0 0 0 0 0 0 0 0 0 0
0 0 0 0 0 0 0 0 0 0 0 0 0 0 0 0 0 0 0 0 0 0 0 0 0 0 0 0 0 0 0 0 0 0 0 0 0 0 0 0 0 0 0 0 0 0 0 0 0 0 0 0 0 0 0 0 0 0 0 0 0 0 0 0 0 0 0 0 0 0 0 0 0 0 0 0 0 0 0 0 0 0 0 0 0 0 0 1 9 12 15 11 39 50 52 52 51 49 46 42 39 36 34 32 34 36 37 36 35 35 34 33 32 31 30 30 29 29 30 31 31 32 32 32 33 34 34 32 31 32 33 32 32 33 33 32 32 32 33 34 33 33 32 32 34 35 36 36 37 37 37 38 37 37 38 39 39 39 38 38 39 39 40 39 40 40 40 39 40 40 42 43 43 45 46 48 46 45 44 44 46 45 43 42 42 44 44 44 43 44 43 43 42 41 41 41 41 39 38 39 39 38 38 36 38 40 38 37 38 39 39 39 37 36 35 35 34 34 33 33 34 36 34 34 34 34 34 33 33 33 32 29 30 32 35 33 31 31 34 36 36 36 35 35 34 34 34 34 34 35 34 33 32 32 32 32 33 33 35 37 36 36 37 36 35 34 33 32 32 32 33 33 34 34 34 34 33 33 33 33 33 33 33 34 35 36 36 36 35 35 34 34 35 36 36 36 34 33 31 31 31 31 34 35 37 38 39 39 39 38 37 37 37 36 34 33 33 32 33 32 33 34 34 33 33 34 35 36 38 38 38 38 39 41 41 41 41 41 40 39 39 40 40 39 39 38 38 37 37 36 37 37 37 37 37 37 38 38 38 38 38 38 38 38 38 38 39 39 40 39 39 38 38 39 39 39 35 35 36 37 39 40 42 42 43 42 41 42 43 44 45 44 41 42 43 45 46 46 46 48 49 50 50 47 47 47 50 52 53 53 49 45 43 43 44 44 43 42 44 44 45 46 46 45 44 43 44 48 48 44 41 41 43 44 44 45 47 48 45 43 44 45 46 47 49 50 52 50 49 47 46 45 44 43 44 45 44 43 40 39 40 42 43 45 45 45 43 44 44 44 46 44 43 42 44 46 48 50 52 52 51 48 48 49 48 47 46 45 44 43 43 41 39 39 40 39 39 38 38 36 34 32 31 32 31 30 30 31 31 30 31 32 32 30 30 30 30 29 29 28 28 29 29 29 30 32 33 32 32 33 36 36 36 35 34 32 31 29 28 30 31 33 33 32 32 34 36 38 38 37 37 39 36 34 32 31 31 31 30 29 29 30 31 30 29 28 29 30 31 31 32 27 25 27 30 29 28 27 27 28 28 27 26 28 29 31 32 27 26 28 29 29 28 27 25 24 25 24 25 26 24 25 25 27 29 30 32 34 34 32 29 29 27 26 27 28 31 35 39 33 33 32 34 38 39 38 41 40 40 43 43 42 40 42 43 46 45 37 27 21 22 20 10 5 1 0 0 0 0 0 0 0 0 0 0 0 0 0 0 0 0 0 0 0 0 0 0 0 0 0 0 0 0 0 0 0 0 0 0 0 0 0 0 0 0 0 0 0 0 0 0 0 0 0 0 0 0 0 0 0 0 0 0 0 0 0 0 0 0 0 0 0 0 0 0 0 0 0 0 0 0 0 0 0 0 0 0 0 0 0
0 0 0 0 0 0 0 0 0 0 0 0 0 0 0 0 0 0 0 0 0 0 0 0 0 0 0 0 0 0 0 0 0 0 0 0 0 0 0 0 0 0 0 0 0 0 0 0 0 0 0 0 0 0 0 0 0 0 0 0 0 0 0 0 0 0 0 0 0 0 0 0 0 0 0 0 0 0 0 0 0 0 0 0 0 1 2 3 14 12 13 34 48 50 51 50 51 48 45 41 37 35 34 33 35 37 37 36 34 33 33 32 31 30 30 30 30 30 31 30 31 32 32 32 33 33 33 31 32 32 33 32 33 33 33 32 32 32 33 34 33 33 33 33 34 35 35 36 37 37 37 37 37 38 38 39 39 39 38 39 40 39 39 38 40 40 40 39 39 40 41 42 42 45 47 47 46 45 45 44 45 44 43 42 41 42 42 42 42 41 40 40 40 39 41 41 39 37 37 36 37 38 38 38 40 42 39 37 36 37 38 38 37 36 35 35 34 34 32 32 33 34 34 34 35 34 33 32 32 33 33 30 29 31 33 32 30 31 34 36 36 36 36 35 35 35 34 34 34 35 34 34 32 32 32 33 34 34 36 36 36 36 37 36 35 34 33 32 32 33 34 34 33 33 33 33 33 33 33 32 33 33 33 34 35 36 37 36 35 35 35 35 35 36 35 36 34 33 31 31 31 32 34 35 36 37 37 38 38 38 38 38 38 36 34 33 33 33 34 33 33 33 34 33 33 34 36 37 38 38 38 39 40 41 42 41 41 41 39 38 38 39 39 38 37 37 38 38 37 36 36 37 38 37 37 36 36 36 37 38 38 38 38 39 39 39 40 40 39 39 39 38 38 38 39 39 37 35 36 39 41 43 44 43 42 42 42 42 43 45 45 42 39 41 43 45 45 46 46 47 48 50 49 46 46 46 49 52 54 54 49 44 42 42 44 44 43 42 42 43 44 44 45 45 43 43 45 46 47 43 40 42 45 44 44 45 47 49 48 46 44 43 46 47 48 48 49 48 48 46 45 45 44 44 45 45 43 44 42 39 39 41 42 42 42 43 42 43 43 42 44 43 42 42 44 46 47 48 50 50 50 48 47 48 46 45 44 44 44 43 44 42 40 38 39 39 40 38 37 35 34 34 32 33 31 30 29 30 30 30 30 31 32 30 29 29 29 29 29 28 27 28 29 29 30 32 31 31 30 32 34 35 37 38 39 36 34 31 28 29 30 31 33 32 33 36 37 37 38 37 37 38 36 35 32 31 31 31 29 28 29 29 31 31 29 29 27 29 30 29 31 28 26 27 30 29 28 28 28 28 28 28 26 26 30 32 35 29 28 28 28 28 28 27 26 26 25 24 23 24 23 24 25 26 27 28 30 31 34 30 28 27 26 25 26 27 30 34 35 35 35 33 34 37 39 35 38 39 39 41 42 42 41 41 41 45 47 45 36 24 18 24 16 8 3 0 0 0 0 0 0 0 0 0 0 0 0 0 0 0 0 0 0 0 0 0 0 0 0 0 0 0 0 0 0 0 0 0 0 0 0 0 0 0 0 0 0 0 0 0 0 0 0 0 0 0 0 0 0 0 0 0 0 0 0 0 0 0 0 0 0 0 0 0 0 0 0 0 0 0 0 0 0 0 0 0 0 0 0 0
0 0 0 0 0 0 0 0 0 0 0 0 0 0 0 0 0 0 0 0 0 0 0 0 0 0 0 0 0 0 0 0 0 0 0 0 0 0 0 0 0 0 0 0 0 0 0 0 0 0 0 0 0 0 0 0 0 0 0 0 0 0 0 0 0 0 0 0 0 0 0 0 0 0 0 0 0 0 0 0 0 0 0 0 0 2 3 11 16 12 26 54 50 51 51 49 48 45 42 38 34 33 34 34 37 37 38 36 34 33 32 31 30 30 30 30 30 30 31 31 31 32 33 32 32 32 31 31 32 32 32 33 33 33 34 34 34 33 33 34 34 33 33 34 34 35 36 37 37 36 36 36 37 37 39 39 39 39 38 38 38 39 39 38 39 39 39 38 39 40 39 42 44 46 48 46 46 45 46 46 44 44 43 42 42 41 42 42 41 40 40 40 41 40 38 38 36 36 35 36 36 38 41 44 44 42 38 37 36 36 36 36 36 35 35 35 35 33 32 32 32 32 34 34 34 34 34 32 32 35 33 30 29 29 31 32 33 33 35 36 36 36 35 35 35 34 33 33 34 35 35 33 32 31 32 33 34 34 35 35 36 36 36 36 34 33 33 33 33 32 33 35 33 32 33 33 33 32 32 33 33 34 34 35 35 36 36 35 35 35 35 35 36 36 36 34 32 32 32 31 32 33 35 37 38 37 37 38 38 38 38 38 38 37 35 34 33 33 34 34 34 33 32 33 35 35 36 37 38 38 38 39 41 43 43 42 41 41 40 37 37 37 38 37 38 38 39 39 39 38 38 37 39 37 37 37 37 37 37 38 38 38 39 39 40 41 41 41 39 39 38 38 38 38 40 40 40 38 39 41 43 44 44 44 43 42 43 43 43 43 43 43 43 43 45 46 45 46 46 46 48 48 49 48 47 46 49 50 52 50 47 43 41 41 45 45 43 41 42 42 43 44 44 44 45 45 46 42 42 41 41 40 43 43 44 45 45 47 48 45 43 42 44 46 47 47 47 46 46 45 44 44 43 43 43 45 44 43 42 41 38 40 40 39 40 41 41 41 40 40 41 41 41 43 45 44 45 46 47 47 49 48 47 48 47 46 45 43 44 43 43 43 41 40 39 39 40 40 39 37 35 34 34 34 33 31 29 28 29 29 31 32 31 30 28 28 28 28 28 29 28 29 29 29 30 30 30 31 31 31 32 32 35 37 38 36 34 31 29 28 30 30 32 33 34 35 36 36 36 38 38 39 36 34 33 32 31 30 30 29 29 31 33 33 33 33 31 29 28 27 28 27 25 27 29 29 29 28 27 28 28 27 27 26 29 31 34 31 28 28 31 29 30 29 28 27 26 24 23 24 23 24 25 25 25 26 28 29 31 30 28 26 25 24 25 27 29 33 36 36 35 34 32 32 34 31 34 37 41 42 42 41 41 41 41 41 45 47 44 33 19 22 17 14 7 2 0 0 0 0 0 0 0 0 0 0 0 0 0 0 0 0 0 0 0 0 0 0 0 0 0 0 0 0 0 0 0 0 0 0 0 0 0 0 0 0 0 0 0 0 0 0 0 0 0 0 0 0 0 0 0 0 0 0 0 0 0 0 0 0 0 0 0 0 0 0 0 0 0 0 0 0 0 0 0 0 0 0 0 0
0 0 0 0 0 0 0 0 0 0 0 0 0 0 0 0 0 0 0 0 0 0 0 0 0 0 0 0 0 0 0 0 0 0 0 0 0 0 0 0 0 0 0 0 0 0 0 0 0 0 0 0 0 0 0 0 0 0 0 0 0 0 0 0 0 0 0 0 0 0 0 0 0 0 0 0 0 0 0 0 0 0 0 0 0 3 9 15 8 34 46 53 50 52 51 49 47 43 39 36 33 32 35 35 36 37 37 35 34 32 31 30 30 31 31 31 31 31 31 32 31 31 31 31 31 32 31 31 32 32 32 32 33 33 34 34 34 33 33 33 33 33 33 33 35 35 36 36 35 35 36 36 37 37 38 39 39 39 37 37 37 39 39 38 38 38 39 38 39 39 39 43 45 47 48 47 46 45 46 46 44 43 42 41 42 41 42 43 42 40 40 40 40 39 37 37 36 37 37 39 39 40 41 43 41 40 37 36 35 35 35 35 35 34 34 35 34 32 31 31 31 32 33 33 34 32 33 32 32 33 31 30 30 31 33 34 35 35 37 37 36 36 35 36 36 35 33 33 33 34 34 33 33 32 32 33 33 33 34 35 35 36 36 36 35 34 34 33 33 33 34 36 34 34 34 33 33 33 33 34 34 34 34 35 35 36 35 36 35 35 35 35 35 35 35 33 31 31 31 31 32 34 36 38 39 37 37 38 39 38 38 37 37 37 36 35 34 33 34 34 34 33 33 34 36 37 37 38 39 38 39 39 41 43 44 43 43 42 41 37 36 36 38 38 38 38 39 39 38 38 38 38 39 37 37 37 38 38 38 38 39 39 39 40 40 41 41 40 39 39 37 37 37 38 40 41 42 40 40 40 43 44 44 43 43 43 43 43 44 44 44 43 44 44 46 46 46 47 47 48 48 48 48 48 48 49 50 50 50 48 46 43 41 41 45 45 43 40 41 42 43 44 44 43 44 46 47 44 41 40 40 41 44 45 46 45 45 46 47 46 44 43 45 45 46 46 47 46 46 45 45 44 44 44 44 43 42 42 42 41 38 38 38 37 37 38 39 39 38 38 39 40 40 41 42 42 43 43 44 45 47 47 45 46 46 46 45 44 43 42 42 43 41 40 39 39 40 40 39 37 36 35 34 33 32 31 30 29 30 30 30 31 32 29 27 27 27 26 27 27 27 28 29 29 30 30 29 31 31 31 32 32 34 36 36 34 32 30 29 29 31 32 33 33 34 35 36 36 36 37 37 38 36 34 33 32 31 29 29 29 28 31 33 34 34 32 31 31 30 27 26 25 24 24 28 30 30 29 28 28 28 27 28 26 28 30 33 31 29 28 30 30 31 30 28 26 27 26 25 25 23 24 25 25 24 27 28 28 30 29 28 25 23 23 23 28 30 32 35 36 35 34 33 33 31 30 32 35 40 41 41 41 41 40 41 41 43 46 47 41 27 20 20 18 12 7 1 0 0 0 0 0 0 0 0 0 0 0 0 0 0 0 0 0 0 0 0 0 0 0 0 0 0 0 0 0 0 0 0 0 0 0 0 0 0 0 0 0 0 0 0 0 0 0 0 0 0 0 0 0 0 0 0 0 0 0 0 0 0 0 0 0 0 0 0 0 0 0 0 0 0 0 0 0 0 0 0 0 0 0
0 0 0 0 0 0 0 0 0 0 0 0 0 0 0 0 0 0 0 0 0 0 0 0 0 0 0 0 0 0 0 0 0 0 0 0 0 0 0 0 0 0 0 0 0 0 0 0 0 0 0 0 0 0 0 0 0 0 0 0 0 0 0 0 0 0 0 0 0 0 0 0 0 0 0 0 0 0 0 0 0 0 0 3 4 7 10 16 17 46 50 49 50 50 50 48 46 42 38 34 32 33 35 35 36 35 35 34 33 32 31 30 31 31 31 31 31 31 31 32 32 31 31 32 32 32 31 30 31 32 31 32 35 35 35 35 33 32 32 32 33 33 34 34 35 35 36 35 35 34 35 36 37 37 38 39 39 39 37 36 38 39 39 37 37 37 38 38 39 39 41 44 46 47 48 45 46 45 46 46 44 43 42 42 42 41 41 42 42 41 40 40 40 40 38 38 36 38 38 40 41 41 41 40 39 38 37 36 34 35 35 35 35 34 34 34 33 33 32 31 32 33 33 33 33 32 32 32 32 32 31 31 32 33 35 36 37 36 37 37 36 35 35 36 36 35 33 33 33 33 33 33 33 32 32 32 32 32 33 34 34 35 36 36 35 35 35 34 33 33 35 36 36 35 35 34 33 33 33 33 33 33 33 34 34 35 35 36 36 37 36 35 34 34 34 32 31 31 30 30 32 34 37 39 38 36 37 38 38 37 37 36 37 37 37 36 34 34 35 35 35 34 34 36 37 38 38 38 39 39 39 39 40 41 42 42 43 42 41 37 36 35 37 38 38 38 39 38 38 37 38 39 39 38 38 38 38 38 37 38 38 39 39 40 39 39 39 38 38 39 37 36 37 39 41 41 42 41 42 42 43 44 44 43 43 43 43 43 44 44 43 43 44 45 46 46 46 46 47 49 48 48 47 48 48 49 49 49 49 48 45 44 42 44 46 46 43 40 42 43 44 44 44 44 45 45 45 43 41 40 40 41 44 46 46 45 44 45 47 47 48 47 46 45 44 45 48 49 47 45 46 45 45 44 44 43 43 42 43 43 41 41 40 38 38 38 39 39 38 37 37 38 39 38 39 39 40 40 41 43 45 45 43 44 45 45 45 44 43 42 41 42 41 39 39 38 38 39 38 37 36 35 34 33 32 31 30 30 30 30 31 32 32 30 27 26 26 26 25 25 25 26 27 28 29 30 29 31 31 32 32 32 34 34 34 32 30 29 28 29 32 33 34 34 35 36 37 36 36 36 37 36 35 34 33 33 31 29 28 29 29 32 33 33 33 31 30 30 31 30 26 24 24 24 27 31 30 29 29 28 28 28 30 27 28 30 31 31 31 29 30 31 32 31 28 26 26 25 25 24 23 25 26 25 23 27 29 28 30 29 27 26 24 23 23 27 28 30 34 35 36 34 32 32 32 32 32 34 38 39 40 40 42 41 41 41 41 42 46 46 38 25 22 19 18 11 6 0 0 0 0 0 0 0 0 0 0 0 0 0 0 0 0 0 0 0 0 0 0 0 0 0 0 0 0 0 0 0 0 0 0 0 0 0 0 0 0 0 0 0 0 0 0 0 0 0 0 0 0 0 0 0 0 0 0 0 0 0 0 0 0 0 0 0 0 0 0 0 0 0 0 0 0 0 0 0 0 0 0 0
0 0 0 0 0 0 0 0 0 0 0 0 0 0 0 0 0 0 0 0 0 0 0 0 0 0 0 0 0 0 0 0 0 0 0 0 0 0 0 0 0 0 0 0 0 0 0 0 0 0 0 0 0 0 0 0 0 0 0 0 0 0 0 0 0 0 0 0 0 0 0 0 0 0 0 0 0 0 0 0 1 0 1 3 3 15 11 12 41 48 50 49 49 50 50 48 44 40 36 34 33 35 36 35 35 34 34 33 32 32 31 31 31 31 31 32 32 31 31 31 32 31 32 33 32 32 31 30 30 31 32 33 35 34 34 34 33 32 31 31 33 34 34 35 36 36 36 35 35 35 36 37 37 38 39 40 39 39 38 37 37 38 38 37 37 38 39 38 40 42 44 46 47 47 47 45 45 45 45 44 42 43 42 42 41 40 40 40 40 40 40 39 40 42 40 40 40 41 41 42 41 41 41 39 38 37 36 34 34 34 35 34 34 33 34 33 33 33 33 33 33 34 33 33 33 32 33 32 32 32 31 32 34 36 37 38 38 37 37 35 37 36 35 36 36 35 34 33 33 33 32 32 32 32 32 32 32 33 33 33 33 34 35 35 35 35 35 34 34 34 34 35 36 36 35 33 32 32 32 32 33 33 32 32 33 34 35 36 36 37 36 35 33 33 33 32 31 31 31 31 32 34 37 38 38 37 38 38 38 36 36 36 36 36 36 35 35 36 37 38 38 37 37 38 39 38 38 38 39 39 39 39 40 41 42 42 42 41 40 38 37 36 37 37 38 38 38 38 37 37 38 39 39 39 38 38 38 39 38 37 39 40 40 41 40 40 39 38 38 38 38 38 38 40 41 41 41 42 43 43 44 44 43 43 43 42 42 43 43 43 43 44 45 46 46 45 45 46 47 48 48 48 47 48 48 47 47 49 48 48 46 46 45 45 46 45 43 42 44 45 45 46 45 44 44 44 43 43 42 41 40 42 44 45 44 45 47 48 50 50 49 48 46 46 45 46 48 48 48 46 46 44 43 43 43 43 43 42 41 40 39 42 41 40 39 38 38 37 36 36 37 37 35 35 37 38 39 38 40 42 44 44 43 43 44 44 43 43 42 41 41 41 40 40 38 38 36 37 36 36 35 34 34 33 30 29 29 28 29 29 29 30 30 28 27 26 26 27 26 24 24 25 27 28 29 30 29 30 31 32 32 33 34 33 32 31 29 28 28 29 32 34 35 35 36 36 37 37 38 38 38 36 35 33 32 31 30 28 28 31 30 33 34 32 30 28 26 28 33 35 31 27 25 25 26 29 31 30 30 29 28 28 31 29 27 29 30 31 32 30 29 30 31 31 29 28 27 24 24 23 25 26 27 25 23 25 28 28 30 31 28 27 26 26 25 26 26 29 32 34 35 35 33 32 32 32 33 35 35 35 38 40 41 41 41 43 43 40 42 45 47 34 24 19 22 16 11 3 1 0 0 0 0 0 0 0 0 0 0 0 0 0 0 0 0 0 0 0 0 0 0 0 0 0 0 0 0 0 0 0 0 0 0 0 0 0 0 0 0 0 0 0 0 0 0 0 0 0 0 0 0 0 0 0 0 0 0 0 0 0 0 0 0 0 0 0 0 0 0 0 0 0 0 0 0 0 0 0 0 0
0 0 0 0 0 0 0 0 0 0 0 0 0 0 0 0 0 0 0 0 0 0 0 0 0 0 0 0 0 0 0 0 0 0 0 0 0 0 0 0 0 0 0 0 0 0 0 0 0 0 0 0 0 0 0 0 0 0 0 0 0 0 0 0 0 0 0 0 0 0 0 0 0 0 0 0 0 0 0 0 0 1 0 4 9 14 13 30 52 48 49 49 48 48 46 44 41 37 35 34 36 38 37 35 34 33 32 31 31 31 31 31 32 32 33 33 33 32 31 31 31 31 32 33 32 31 31 30 30 31 34 35 34 33 33 34 33 32 32 32 33 34 35 36 36 35 35 35 36 36 37 37 37 38 39 40 39 39 39 39 37 38 38 37 37 38 39 39 40 44 46 46 46 46 44 43 44 44 44 42 41 42 42 41 41 39 39 39 38 39 39 39 39 41 41 40 41 41 42 41 41 41 41 40 38 38 37 35 35 35 35 34 35 34 34 33 33 34 34 34 34 35 34 33 33 32 33 33 32 31 32 33 37 39 40 40 39 38 37 35 36 36 35 35 35 35 34 34 33 33 32 31 32 32 32 32 32 33 33 33 33 33 33 34 35 36 36 35 35 35 35 35 35 35 34 33 33 33 32 32 33 34 33 33 33 33 35 36 35 35 35 34 33 32 32 32 32 31 32 32 33 35 38 38 38 38 39 39 38 36 36 36 36 36 36 36 37 38 40 40 40 40 40 40 41 40 39 40 40 40 40 40 41 41 41 41 41 40 39 38 37 37 37 37 37 37 37 37 37 37 38 38 39 39 39 39 40 41 40 38 39 40 39 41 40 40 40 40 40 39 39 38 39 40 41 41 42 42 42 43 45 45 43 42 42 42 42 42 42 42 43 44 45 46 46 45 45 46 47 48 48 48 47 48 47 47 46 49 49 48 47 47 47 46 45 45 44 44 44 45 46 46 45 44 43 43 43 44 43 43 42 44 45 46 46 47 51 51 50 51 51 50 48 48 47 47 47 46 45 43 43 42 41 41 40 41 43 42 39 37 36 39 39 38 39 37 36 35 35 36 37 37 35 35 37 38 38 38 40 42 43 44 43 43 43 42 41 41 41 41 41 41 40 40 38 38 38 37 36 36 35 34 32 31 30 29 27 26 27 27 27 27 27 27 26 26 27 28 27 25 24 25 26 27 29 30 30 30 33 34 34 35 35 34 33 32 32 30 30 30 32 33 34 36 36 36 36 37 38 38 38 36 35 33 31 30 28 28 29 30 30 32 32 31 29 28 27 28 31 32 32 29 25 25 27 27 29 30 32 31 30 29 32 32 30 28 29 31 31 29 28 29 30 30 29 28 28 25 25 24 24 25 25 25 24 25 26 28 28 30 29 27 27 27 28 28 28 29 31 33 34 35 34 35 33 31 33 35 34 34 37 40 41 41 40 41 43 40 41 45 47 42 29 20 15 18 15 7 3 0 0 0 0 0 0 0 0 0 0 0 0 0 0 0 0 0 0 0 0 0 0 0 0 0 0 0 0 0 0 0 0 0 0 0 0 0 0 0 0 0 0 0 0 0 0 0 0 0 0 0 0 0 0 0 0 0 0 0 0 0 0 0 0 0 0 0 0 0 0 0 0 0 0 0 0 0 0 0 0 0
0 0 0 0 0 0 0 0 0 0 0 0 0 0 0 0 0 0 0 0 0 0 0 0 0 0 0 0 0 0 0 0 0 0 0 0 0 0 0 0 0 0 0 0 0 0 0 0 0 0 0 0 0 0 0 0 0 0 0 0 0 0 0 0 0 0 0 0 0 0 0 0 0 0 0 0 0 0 0 0 1 2 3 5 13 11 26 40 51 49 48 48 48 48 45 43 38 35 34 35 39 41 39 36 34 33 31 30 29 29 30 31 33 33 34 34 33 32 31 30 31 30 32 32 31 30 30 31 32 32 34 35 32 32 32 33 33 33 33 34 34 35 35 35 35 35 35 35 36 37 37 36 37 38 38 38 39 39 39 39 37 38 38 38 39 39 40 40 42 45 46 45 45 44 44 44 44 45 44 43 42 42 41 40 41 40 39 39 39 39 40 39 40 40 40 42 45 44 42 40 41 41 41 40 39 38 37 36 35 35 35 34 35 34 35 34 34 34 34 33 33 33 33 33 34 31 31 32 32 31 33 35 38 40 40 40 39 38 37 36 37 36 35 35 35 35 35 34 34 33 32 32 32 33 33 33 33 34 33 33 33 32 32 33 35 37 37 37 36 36 36 35 35 35 34 34 34 33 33 33 34 35 35 34 34 34 34 34 33 34 33 33 32 32 32 33 32 32 33 34 35 36 38 38 38 38 38 38 37 37 36 36 36 36 37 38 39 40 40 40 40 41 41 40 40 40 40 41 40 41 42 42 41 41 40 41 41 40 38 37 37 37 37 37 36 36 36 36 37 37 38 39 39 39 39 39 40 41 40 40 39 40 39 40 39 40 41 41 41 41 41 41 40 41 41 41 43 42 42 43 45 45 43 42 42 42 42 42 42 42 44 44 45 46 46 45 46 46 46 48 48 48 48 48 47 47 47 49 49 48 48 48 47 46 45 45 45 44 45 45 46 45 45 44 43 44 43 44 44 45 44 46 46 47 46 47 51 51 51 51 50 49 48 49 49 48 48 46 44 42 43 42 41 40 39 38 39 39 37 37 36 38 38 37 38 37 36 36 36 36 36 35 36 36 37 37 38 39 40 42 43 44 43 42 42 41 40 40 40 40 40 40 39 39 38 38 38 37 36 36 35 34 32 31 29 27 27 26 27 27 27 26 26 25 25 26 27 28 27 26 24 24 26 27 29 30 31 32 32 33 34 35 34 33 33 33 33 31 31 32 33 33 34 36 35 35 35 36 37 37 37 37 34 32 31 29 28 29 30 30 30 32 32 32 30 29 30 31 31 28 29 28 27 25 27 27 27 28 30 31 31 30 31 32 31 29 29 31 31 29 28 29 31 30 29 29 29 28 27 25 25 25 25 25 24 24 23 25 26 27 28 27 28 28 29 31 29 29 29 33 34 36 35 35 34 32 33 34 34 34 36 40 40 40 41 41 40 43 42 44 47 49 37 26 16 19 16 13 5 1 0 0 0 0 0 0 0 0 0 0 0 0 0 0 0 0 0 0 0 0 0 0 0 0 0 0 0 0 0 0 0 0 0 0 0 0 0 0 0 0 0 0 0 0 0 0 0 0 0 0 0 0 0 0 0 0 0 0 0 0 0 0 0 0 0 0 0 0 0 0 0 0 0 0 0 0 0 0 0 0
0 0 0 0 0 0 0 0 0 0 0 0 0 0 0 0 0 0 0 0 0 0 0 0 0 0 0 0 0 0 0 0 0 0 0 0 0 0 0 0 0 0 0 0 0 0 0 0 0 0 0 0 0 0 0 0 0 0 0 0 0 0 0 0 0 0 0 0 0 0 0 0 0 0 0 0 0 0 0 0 1 4 4 12 20 17 37 48 51 49 48 49 48 46 43 39 35 34 36 38 41 41 38 36 33 32 30 28 28 29 31 32 34 34 35 34 33 32 31 30 31 30 30 30 30 29 30 31 32 32 33 34 32 32 32 32 33 33 34 35 35 36 35 35 34 34 34 36 37 38 37 37 37 38 38 38 38 40 40 40 38 38 38 40 41 41 42 42 44 45 45 44 44 44 46 45 45 45 44 44 43 42 41 40 40 40 40 40 41 42 40 39 39 39 41 44 49 46 43 40 41 41 40 41 40 39 37 37 36 36 36 35 35 34 35 34 33 33 33 32 33 32 33 33 34 31 31 32 32 32 35 37 39 41 41 41 39 39 38 38 38 37 35 35 35 35 35 34 33 33 32 32 33 33 33 33 33 33 33 34 33 32 32 33 36 38 38 37 36 36 36 35 35 35 35 35 34 33 33 33 34 35 35 34 34 34 34 34 33 33 32 32 32 32 33 34 32 32 34 35 37 37 38 38 37 37 38 37 37 36 36 37 37 37 38 39 40 41 41 40 41 42 42 41 42 42 42 41 41 42 43 42 42 42 42 41 41 40 39 38 38 37 36 36 35 35 35 36 37 38 39 39 39 39 39 39 39 39 40 40 40 40 39 39 38 39 40 41 42 42 42 42 41 41 41 42 43 43 44 44 44 45 43 43 42 41 42 43 44 44 44 44 45 45 46 46 46 46 46 48 48 49 49 48 48 48 48 48 48 49 48 47 47 47 45 45 45 45 45 45 45 44 44 44 43 44 43 44 45 45 44 45 45 46 45 44 47 50 51 51 50 49 49 49 49 47 45 43 43 42 42 42 41 39 38 37 38 37 36 37 37 38 38 37 37 37 36 36 37 37 36 35 36 36 36 36 36 37 38 40 41 42 41 40 40 40 39 39 38 39 39 39 38 38 38 39 38 38 36 35 34 33 32 30 25 25 25 25 26 26 27 25 25 24 25 26 26 27 26 26 26 26 27 28 28 30 31 32 32 32 33 33 33 32 33 32 33 32 32 33 33 34 35 35 35 35 35 35 36 36 36 37 34 32 31 31 30 32 33 32 32 32 32 33 32 32 35 35 33 27 26 26 29 27 27 28 27 27 26 27 30 29 29 30 30 31 31 31 32 30 29 28 30 30 29 30 30 31 30 27 26 25 26 25 23 23 22 23 25 25 27 27 27 28 29 30 29 30 29 33 35 37 36 35 35 33 33 32 34 35 36 38 38 40 40 42 40 44 43 42 44 49 45 34 23 18 20 18 11 4 0 0 0 0 0 0 0 0 0 0 0 0 0 0 0 0 0 0 0 0 0 0 0 0 0 0 0 0 0 0 0 0 0 0 0 0 0 0 0 0 0 0 0 0 0 0 0 0 0 0 0 0 0 0 0 0 0 0 0 0 0 0 0 0 0 0 0 0 0 0 0 0 0 0 0 0 0 0 0 0
0 0 0 0 0 0 0 0 0 0 0 0 0 0 0 0 0 0 0 0 0 0 0 0 0 0 0 0 0 0 0 0 0 0 0 0 0 0 0 0 0 0 0 0 0 0 0 0 0 0 0 0 0 0 0 0 0 0 0 0 0 0 0 0 0 0 0 0 0 0 0 0 0 0 0 0 0 0 0 0 2 2 12 10 13 41 46 50 49 50 51 50 47 44 40 36 34 35 40 41 42 39 36 34 32 30 29 27 28 30 32 34 35 35 35 34 33 32 31 31 31 30 29 29 29 30 30 30 32 33 34 34 32 31 31 31 33 34 34 35 35 36 35 34 34 33 34 36 38 38 38 38 37 39 38 38 38 41 41 41 39 37 38 41 44 43 43 43 43 44 43 43 44 44 46 46 45 45 44 44 43 42 40 40 40 40 39 41 42 43 41 39 39 40 43 47 50 45 43 40 42 42 40 40 40 39 39 38 37 37 36 34 34 34 35 35 35 33 33 32 33 33 33 33 34 32 32 32 33 35 37 39 40 41 41 41 41 41 41 41 40 38 36 35 35 35 34 32 33 32 32 33 33 33 34 34 34 33 33 33 33 32 32 34 37 39 38 37 36 35 35 35 34 35 36 36 35 33 34 35 36 36 35 34 35 35 35 34 33 33 32 32 32 33 34 35 32 32 34 36 37 37 37 37 36 37 38 37 36 36 37 37 38 39 40 40 41 41 42 42 42 43 43 43 44 44 43 42 42 43 43 42 42 42 41 41 41 40 40 39 38 37 37 36 35 35 35 36 37 38 39 40 39 39 40 40 40 40 40 40 40 40 38 38 38 39 41 42 43 42 42 41 40 40 42 42 43 44 45 45 45 46 46 45 44 43 44 45 46 45 44 44 46 46 47 47 47 47 46 47 48 49 49 49 49 49 48 48 48 48 48 48 47 46 45 44 44 44 45 44 44 43 43 43 44 44 43 43 44 43 43 44 46 46 44 43 46 47 49 51 50 48 46 46 46 44 44 42 41 40 41 41 40 38 39 37 37 36 35 36 36 36 37 37 39 38 37 36 37 38 36 35 34 34 35 35 35 36 37 39 38 39 39 38 39 39 39 39 37 38 39 39 39 38 37 38 39 40 38 36 35 34 32 31 27 27 27 27 27 27 27 25 25 24 26 26 26 26 25 27 27 26 26 27 27 28 29 30 31 32 32 32 31 31 31 30 31 32 33 33 33 35 36 35 36 35 34 33 33 33 33 33 32 31 32 33 33 34 34 33 33 32 34 36 35 33 36 37 36 29 26 27 31 30 30 28 29 26 25 28 32 31 29 28 30 35 34 31 32 32 31 30 31 31 30 29 29 30 31 28 27 26 27 25 22 22 22 21 23 24 26 27 26 26 29 29 30 31 29 30 33 37 35 32 33 34 34 34 34 35 37 40 39 40 38 40 42 41 44 42 42 45 48 43 33 19 20 20 17 10 2 0 0 0 0 0 0 0 0 0 0 0 0 0 0 0 0 0 0 0 0 0 0 0 0 0 0 0 0 0 0 0 0 0 0 0 0 0 0 0 0 0 0 0 0 0 0 0 0 0 0 0 0 0 0 0 0 0 0 0 0 0 0 0 0 0 0 0 0 0 0 0 0 0 0 0 0 0 0 0
0 0 0 0 0 0 0 0 0 0 0 0 0 0 0 0 0 0 0 0 0 0 0 0 0 0 0 0 0 0 0 0 0 0 0 0 0 0 0 0 0 0 0 0 0 0 0 0 0 0 0 0 0 0 0 0 0 0 0 0 0 0 0 0 0 0 0 0 0 0 0 0 0 0 0 0 0 0 0 2 5 4 16 12 21 46 47 48 50 51 52 49 45 41 38 36 36 38 41 41 41 39 35 33 32 30 29 29 29 30 32 34 35 35 34 33 33 32 32 31 31 30 29 29 29 30 31 31 31 33 35 33 32 31 31 32 33 33 33 34 35 36 36 35 33 33 34 36 37 37 38 38 38 38 38 37 38 39 41 40 39 37 37 40 42 42 42 43 42 43 42 43 44 44 44 44 45 45 44 45 44 43 41 40 40 40 39 39 39 40 39 39 40 41 44 46 46 43 42 41 41 39 38 41 41 40 41 39 38 37 36 35 34 34 33 34 34 34 34 33 34 34 35 35 35 33 34 32 37 38 40 39 40 42 41 42 42 41 40 40 39 37 35 35 34 34 33 32 33 32 31 31 32 32 33 34 34 34 34 34 33 33 34 36 39 38 37 35 35 35 35 35 35 35 36 36 35 34 34 34 35 34 34 34 34 35 35 34 33 33 33 33 33 33 33 34 33 33 34 36 38 38 38 37 37 37 37 37 36 36 37 37 38 38 39 40 40 41 42 42 43 43 44 43 45 44 43 42 42 42 42 42 41 41 41 41 40 40 41 40 40 38 37 37 36 36 35 36 37 38 38 39 39 40 41 41 41 40 40 41 40 39 38 38 39 40 41 41 42 41 41 40 39 39 41 41 42 43 45 45 45 47 46 46 45 44 45 45 45 44 44 44 46 46 47 48 47 46 46 47 48 49 49 50 49 48 48 48 49 49 49 48 48 46 44 44 45 45 45 45 44 43 42 43 43 44 44 43 45 45 45 45 43 44 43 43 44 45 47 49 48 47 43 43 42 43 43 41 40 41 41 39 36 36 37 38 37 36 35 36 36 36 37 39 39 39 35 36 35 35 34 34 33 32 33 32 34 35 36 37 37 37 36 35 36 37 38 38 36 37 38 39 38 38 38 38 38 38 38 37 36 36 33 30 28 27 26 27 27 27 27 24 26 26 26 27 27 27 26 26 26 26 26 25 26 28 29 30 31 32 31 31 30 30 31 30 30 30 32 33 34 35 36 36 37 35 34 33 34 34 31 32 31 31 32 32 33 34 33 32 31 32 33 35 35 35 35 33 34 31 27 28 33 32 30 29 31 29 26 27 30 32 31 27 28 32 36 34 31 32 33 32 33 30 30 29 29 30 30 28 27 28 26 25 23 22 21 20 22 23 24 26 27 26 27 28 29 30 28 31 32 35 36 32 33 32 34 33 34 34 36 39 40 40 39 40 42 42 43 43 44 44 47 46 44 30 18 20 20 13 8 1 0 0 0 0 0 0 0 0 0 0 0 0 0 0 0 0 0 0 0 0 0 0 0 0 0 0 0 0 0 0 0 0 0 0 0 0 0 0 0 0 0 0 0 0 0 0 0 0 0 0 0 0 0 0 0 0 0 0 0 0 0 0 0 0 0 0 0 0 0 0 0 0 0 0 0 0 0 0
0 0 0 0 0 0 0 0 0 0 0 0 0 0 0 0 0 0 0 0 0 0 0 0 0 0 0 0 0 0 0 0 0 0 0 0 0 0 0 0 0 0 0 0 0 0 0 0 0 0 0 0 0 0 0 0 0 0 0 0 0 0 0 0 0 0 0 0 0 0 0 0 0 0 0 0 0 0 0 4 5 14 15 17 32 49 47 48 51 52 50 46 43 39 38 38 39 40 41 40 40 38 35 32 30 29 29 29 30 31 33 33 34 34 34 33 32 31 31 30 30 29 29 29 30 30 31 31 32 33 33 32 31 31 31 32 33 33 33 34 35 36 36 35 33 34 35 37 37 37 38 38 37 38 38 37 37 38 40 41 41 37 37 41 42 41 41 44 44 44 43 43 43 43 43 44 44 45 46 45 43 42 41 41 40 39 38 38 38 39 39 39 42 42 44 45 44 42 41 41 38 38 37 40 41 41 43 41 40 38 36 35 35 34 33 34 32 34 35 35 36 36 37 35 36 33 34 33 40 40 39 37 39 41 41 42 43 41 40 38 37 35 33 33 33 32 32 31 31 31 30 30 32 33 34 34 34 34 34 35 35 35 35 38 39 37 35 34 34 35 35 35 35 35 36 36 36 34 33 33 32 32 33 33 34 35 35 34 34 34 34 33 33 33 33 33 33 34 36 37 37 37 38 38 38 38 38 37 36 36 36 37 37 38 39 39 40 41 42 42 43 44 45 44 45 44 43 42 42 42 42 42 42 41 41 41 40 40 42 41 42 40 38 37 36 37 36 37 38 38 38 39 40 40 42 42 43 41 40 40 40 39 38 39 40 40 40 39 40 40 39 39 39 39 40 41 43 42 44 44 45 48 47 47 46 44 45 46 45 44 45 45 47 47 47 48 47 46 46 47 48 49 49 49 48 48 49 50 50 50 50 50 48 46 45 45 45 45 44 44 43 42 42 43 43 44 44 42 44 45 45 46 43 44 41 40 43 46 48 47 47 46 42 40 39 41 42 41 41 42 40 37 36 35 37 38 38 38 37 37 37 37 37 39 40 40 37 35 34 34 33 32 31 32 33 33 34 34 34 34 36 36 36 36 36 36 37 37 37 37 37 38 38 38 38 38 38 37 37 36 37 36 34 31 28 27 27 27 27 26 26 25 26 28 28 27 27 27 27 27 27 27 26 26 28 29 30 30 31 31 29 29 29 29 30 30 29 29 31 32 33 35 36 36 37 34 34 35 36 34 30 30 30 30 30 31 33 33 33 31 32 33 34 36 35 36 35 33 33 30 28 27 32 31 30 29 30 30 28 27 28 29 32 30 29 31 34 35 32 30 31 33 34 32 31 30 29 29 29 27 27 27 26 25 23 21 20 20 21 23 23 25 27 26 26 26 28 30 28 31 32 34 35 33 31 31 33 32 32 33 35 38 42 38 37 40 40 43 43 45 45 44 46 47 46 40 26 20 22 18 12 3 0 0 0 0 0 0 0 0 0 0 0 0 0 0 0 0 0 0 0 0 0 0 0 0 0 0 0 0 0 0 0 0 0 0 0 0 0 0 0 0 0 0 0 0 0 0 0 0 0 0 0 0 0 0 0 0 0 0 0 0 0 0 0 0 0 0 0 0 0 0 0 0 0 0 0 0 0 0
0 0 0 0 0 0 0 0 0 0 0 0 0 0 0 0 0 0 0 0 0 0 0 0 0 0 0 0 0 0 0 0 0 0 0 0 0 0 0 0 0 0 0 0 0 0 0 0 0 0 0 0 0 0 0 0 0 0 0 0 0 0 0 0 0 0 0 0 0 0 0 0 0 0 0 0 0 0 1 4 13 21 16 30 44 49 46 50 53 51 48 43 41 39 39 40 40 40 39 38 38 36 34 31 30 30 30 30 30 31 32 32 33 33 33 32 31 30 30 29 30 29 29 30 32 31 32 32 32 32 32 32 31 31 32 32 33 33 34 35 35 35 35 35 34 35 36 37 36 36 37 38 38 37 37 36 36 38 40 42 40 38 36 38 37 37 40 46 47 47 45 44 44 42 42 44 45 46 47 47 44 42 41 41 41 39 37 37 38 40 40 40 41 41 42 42 44 44 43 41 40 40 40 41 42 44 45 42 39 37 36 35 35 35 34 35 34 36 38 37 38 37 37 36 35 34 35 36 42 40 38 37 39 40 42 44 45 44 41 38 37 35 33 33 33 33 32 33 31 30 30 29 31 33 35 36 36 35 35 36 37 37 37 39 40 37 35 34 35 36 36 35 35 35 36 36 36 34 32 31 31 31 32 33 34 35 35 34 33 33 33 33 33 33 33 33 35 36 37 37 36 37 37 38 38 38 38 38 37 36 36 37 37 37 38 38 39 39 40 42 42 44 45 45 45 45 44 43 43 42 42 42 42 41 40 41 40 40 42 42 44 42 39 38 36 37 36 37 37 38 39 40 39 40 42 43 44 42 41 41 41 40 39 39 40 40 39 38 39 40 40 40 39 39 41 41 41 40 41 42 44 46 45 46 46 46 46 47 46 45 46 46 47 47 48 48 47 46 46 47 47 48 49 49 48 49 50 51 50 49 48 50 50 48 47 46 45 45 43 42 41 42 42 43 43 42 42 42 45 47 48 49 46 46 43 40 43 47 49 46 45 46 43 40 40 41 44 44 43 44 42 38 36 35 36 38 39 39 38 38 39 38 38 38 38 39 37 35 35 34 34 33 32 33 34 34 34 32 32 31 34 34 36 37 37 36 38 39 37 37 36 37 38 38 37 38 37 36 35 36 36 36 34 32 30 29 28 28 27 26 26 26 27 28 29 28 28 28 29 28 28 28 27 27 29 30 30 30 31 31 30 29 29 30 31 31 29 29 31 31 34 36 37 37 37 33 32 34 36 35 30 30 30 30 29 30 32 32 31 30 32 34 35 36 35 35 34 33 32 30 28 26 30 30 30 30 31 30 29 27 26 27 32 31 31 31 32 35 34 30 29 32 34 34 33 33 31 31 31 28 27 27 26 25 23 20 20 20 21 22 23 24 26 25 25 25 27 30 29 30 32 31 34 34 32 31 33 32 32 34 35 38 41 41 37 37 40 43 45 45 47 44 44 45 46 47 35 23 22 21 18 9 1 0 0 0 0 0 0 0 0 0 0 0 0 0 0 0 0 0 0 0 0 0 0 0 0 0 0 0 0 0 0 0 0 0 0 0 0 0 0 0 0 0 0 0 0 0 0 0 0 0 0 0 0 0 0 0 0 0 0 0 0 0 0 0 0 0 0 0 0 0 0 0 0 0 0 0 0 0
0 0 0 0 0 0 0 0 0 0 0 0 0 0 0 0 0 0 0 0 0 0 0 0 0 0 0 0 0 0 0 0 0 0 0 0 0 0 0 0 0 0 0 0 0 0 0 0 0 0 0 0 0 0 0 0 0 0 0 0 0 0 0 0 0 0 0 0 0 0 0 0 0 0 0 0 0 1 3 7 12 17 32 41 48 47 50 52 53 48 43 41 41 40 40 41 39 38 37 37 36 35 34 31 30 30 31 31 31 31 32 32 31 31 31 30 30 29 29 29 29 29 30 31 33 32 32 32 32 32 31 32 32 32 32 32 33 34 35 35 35 34 35 35 35 36 37 36 36 37 38 39 38 38 36 36 38 41 43 43 37 37 35 36 37 42 49 56 54 51 46 44 43 42 43 45 47 47 47 47 44 42 41 41 40 38 37 37 38 39 40 40 39 40 40 42 45 49 47 43 39 39 39 39 41 42 42 39 38 37 37 36 34 34 34 34 35 37 38 36 36 35 36 35 35 35 36 37 40 38 38 39 40 40 41 44 46 44 42 38 37 35 34 33 32 33 33 33 32 31 30 29 30 33 36 38 37 37 36 37 37 36 36 37 38 36 35 34 35 36 36 35 35 35 36 36 35 33 32 31 33 33 34 34 35 36 36 35 33 32 33 33 33 34 34 34 36 36 37 38 37 37 37 37 37 38 38 38 37 37 36 37 37 38 38 38 39 40 41 42 43 45 46 46 46 46 45 44 44 43 43 43 42 41 41 41 42 41 41 41 42 41 39 37 37 37 36 36 37 39 40 40 40 41 42 42 44 43 42 41 40 39 39 39 39 39 40 38 39 39 40 40 40 41 42 41 40 39 40 43 46 47 47 46 46 47 47 47 47 46 46 47 47 48 48 48 47 47 47 47 46 46 47 47 47 49 49 49 49 48 48 50 50 49 48 46 43 44 43 42 41 42 43 44 43 43 43 43 45 48 49 51 50 49 45 42 44 46 48 46 45 45 43 43 42 41 44 44 45 44 42 40 39 37 38 38 40 42 43 42 41 40 39 39 38 39 38 36 36 34 32 32 32 33 34 34 34 32 31 32 33 33 35 35 35 34 37 38 36 36 36 36 36 35 34 36 36 35 34 35 36 35 33 32 32 29 28 27 26 26 25 25 25 26 26 27 27 28 28 29 28 28 28 28 29 30 30 31 31 30 30 29 28 30 31 31 29 29 30 31 34 37 38 37 36 34 34 35 36 35 30 29 31 30 30 31 30 29 29 32 33 34 35 36 36 35 33 32 33 31 27 25 28 29 29 29 31 30 31 28 26 25 29 29 31 32 32 34 34 30 28 30 34 37 36 35 34 33 34 32 30 27 26 24 23 20 20 20 21 22 22 23 25 26 25 25 27 29 30 30 31 31 33 33 32 31 32 33 32 34 34 38 40 42 39 35 39 44 45 45 46 47 45 45 46 48 44 30 22 18 19 16 6 1 0 0 0 0 0 0 0 0 0 0 0 0 0 0 0 0 0 0 0 0 0 0 0 0 0 0 0 0 0 0 0 0 0 0 0 0 0 0 0 0 0 0 0 0 0 0 0 0 0 0 0 0 0 0 0 0 0 0 0 0 0 0 0 0 0 0 0 0 0 0 0 0 0 0 0 0
0 0 0 0 0 0 0 0 0 0 0 0 0 0 0 0 0 0 0 0 0 0 0 0 0 0 0 0 0 0 0 0 0 0 0 0 0 0 0 0 0 0 0 0 0 0 0 0 0 0 0 0 0 0 0 0 0 0 0 0 0 0 0 0 0 0 0 0 0 0 0 0 0 0 0 0 1 3 3 13 11 16 39 44 47 50 52 51 50 45 41 40 41 42 41 38 37 35 35 36 35 34 33 30 29 30 31 32 32 32 31 30 30 29 29 28 29 29 29 30 30 30 31 31 33 33 33 32 32 31 31 32 32 32 32 33 34 34 34 35 34 33 34 35 35 36 35 34 35 37 39 40 38 37 36 37 39 40 40 40 35 36 36 35 41 46 51 55 53 49 43 45 44 44 44 47 48 47 46 46 45 43 41 40 40 37 36 36 37 39 38 38 38 39 40 42 46 50 47 42 38 38 37 38 40 40 40 37 37 36 37 36 35 34 34 34 36 37 37 36 35 34 35 36 36 36 36 39 39 38 38 39 40 40 42 44 45 44 42 40 38 37 36 34 34 35 35 34 32 31 30 29 31 33 36 39 39 38 38 37 36 36 36 36 37 36 35 34 34 35 35 35 35 35 36 35 34 32 31 31 33 34 35 35 35 35 35 34 32 32 33 33 33 33 34 35 36 36 36 38 38 38 37 36 37 37 37 38 37 37 36 36 38 37 37 37 38 40 42 43 44 45 46 47 46 45 45 44 44 43 43 43 42 41 41 41 41 41 41 40 41 40 38 37 36 37 37 36 37 39 40 40 41 42 42 42 43 44 43 42 40 39 39 38 39 39 40 38 38 39 39 40 40 42 42 41 41 41 42 44 46 45 45 45 46 46 46 47 47 47 47 48 48 48 48 48 47 47 48 48 48 47 47 46 46 47 48 49 49 48 49 50 49 49 48 45 40 43 43 42 41 41 42 43 43 43 44 46 47 48 49 51 54 50 47 42 42 43 45 43 44 44 43 44 43 40 42 43 44 42 41 40 40 38 38 38 38 39 39 40 41 40 38 37 38 37 36 36 37 36 33 32 31 32 33 34 34 33 32 32 32 33 34 33 33 32 35 35 35 36 35 34 33 32 31 33 34 36 37 36 36 34 32 31 30 28 28 27 25 26 26 26 26 26 27 28 28 27 27 27 28 28 27 27 29 30 31 32 31 30 30 29 29 30 30 31 30 30 30 31 34 37 38 37 36 34 34 35 35 34 31 30 31 30 30 30 29 29 29 32 33 34 33 35 35 35 34 32 33 32 28 25 23 26 27 29 31 31 31 29 26 25 29 29 28 29 31 33 33 30 27 28 33 38 37 37 36 35 34 33 30 27 25 24 23 22 21 21 21 21 22 23 25 27 27 26 26 27 29 29 29 30 32 31 32 33 32 34 33 33 33 37 39 40 39 38 38 43 44 45 46 49 47 45 45 48 49 41 28 21 21 18 11 4 1 0 0 0 0 0 0 0 0 0 0 0 0 0 0 0 0 0 0 0 0 0 0 0 0 0 0 0 0 0 0 0 0 0 0 0 0 0 0 0 0 0 0 0 0 0 0 0 0 0 0 0 0 0 0 0 0 0 0 0 0 0 0 0 0 0 0 0 0 0 0 0 0 0 0 0
0 0 0 0 0 0 0 0 0 0 0 0 0 0 0 0 0 0 0 0 0 0 0 0 0 0 0 0 0 0 0 0 0 0 0 0 0 0 0 0 0 0 0 0 0 0 0 0 0 0 0 0 0 0 0 0 0 0 0 0 0 0 0 0 0 0 0 0 0 0 0 0 0 0 0 0 1 5 14 14 8 28 48 49 50 52 53 53 47 42 40 41 42 42 40 36 34 34 34 35 34 33 32 30 30 31 32 33 33 31 30 29 29 28 27 28 29 29 30 31 31 32 32 32 34 34 34 33 31 31 32 32 33 33 33 33 34 34 34 34 34 34 34 35 35 35 35 34 35 37 38 39 37 35 34 36 39 38 36 36 36 36 36 36 44 49 53 54 52 47 42 44 44 44 46 49 48 47 45 45 45 44 42 40 40 37 36 36 37 39 38 38 37 38 40 42 45 47 45 42 38 37 37 37 39 39 39 38 38 37 38 37 35 35 35 36 36 36 36 35 35 34 36 38 39 37 37 39 37 36 37 39 41 42 44 45 45 43 41 39 39 39 38 36 35 36 36 34 32 31 30 30 31 33 35 38 39 38 38 37 35 36 36 36 37 37 36 34 33 33 33 33 33 34 35 35 34 32 31 31 33 35 36 36 35 35 35 33 32 32 33 33 34 34 35 36 36 36 36 38 38 38 37 36 36 37 36 36 36 36 36 36 38 38 37 38 39 41 43 44 44 44 46 47 46 46 46 46 45 44 44 43 42 41 41 42 41 42 41 41 40 40 38 38 37 37 38 39 39 40 41 42 43 43 43 43 43 43 42 42 40 40 39 39 40 40 40 38 38 38 38 38 40 42 42 41 41 42 43 44 46 45 45 45 46 46 46 47 47 47 47 48 49 49 49 48 48 48 48 49 48 48 47 47 46 47 47 48 49 49 49 49 48 48 46 42 38 41 43 42 41 41 42 42 43 44 46 47 48 47 47 49 52 47 45 42 41 41 42 42 43 43 42 43 41 40 41 42 42 41 41 40 40 38 38 39 39 38 36 39 40 38 37 38 37 37 36 36 36 36 33 31 30 31 33 34 34 32 32 32 32 33 33 33 33 33 34 34 34 35 34 33 31 31 30 32 34 36 37 37 36 35 32 31 30 28 28 29 28 30 28 27 26 27 28 29 28 28 28 28 27 27 27 28 29 31 31 33 31 30 29 29 30 30 29 31 31 32 31 31 33 37 38 37 36 34 35 35 34 31 30 31 31 29 29 29 29 29 30 32 32 33 32 34 34 34 34 33 29 29 27 25 21 22 25 28 31 33 32 30 27 26 29 29 26 26 28 32 33 33 28 28 30 37 38 37 37 37 35 34 30 27 26 25 23 22 22 21 21 21 22 22 24 26 27 28 28 28 29 29 29 30 31 31 32 34 34 34 34 33 35 39 38 39 38 42 41 43 43 45 47 49 49 46 44 47 49 48 39 26 20 20 17 7 3 0 0 0 0 0 0 0 0 0 0 0 0 0 0 0 0 0 0 0 0 0 0 0 0 0 0 0 0 0 0 0 0 0 0 0 0 0 0 0 0 0 0 0 0 0 0 0 0 0 0 0 0 0 0 0 0 0 0 0 0 0 0 0 0 0 0 0 0 0 0 0 0 0 0 0
0 0 0 0 0 0 0 0 0 0 0 0 0 0 0 0 0 0 0 0 0 0 0 0 0 0 0 0 0 0 0 0 0 0 0 0 0 0 0 0 0 0 0 0 0 0 0 0 0 0 0 0 0 0 0 0 0 0 0 0 0 0 0 0 0 0 0 0 0 0 0 0 0 0 0 1 4 10 18 11 22 43 50 49 49 52 53 50 45 41 40 41 41 40 38 34 33 33 34 35 34 32 31 31 31 32 32 33 32 31 29 28 28 27 27 28 29 30 31 32 32 32 32 32 33 34 34 33 31 31 32 32 33 33 33 34 34 34 34 34 34 34 35 35 35 36 36 36 36 37 37 37 36 35 35 36 39 37 36 37 39 38 38 37 45 48 51 49 46 45 44 44 43 45 45 46 47 46 45 45 45 45 43 41 40 38 38 37 38 38 37 36 37 38 40 42 43 43 43 42 39 38 38 38 39 38 40 40 40 38 38 37 35 35 35 36 36 36 36 35 36 35 37 40 40 40 41 41 38 36 36 38 40 42 44 44 44 42 39 38 39 39 39 38 36 37 36 34 32 31 30 30 32 34 36 38 39 38 37 37 36 37 38 38 38 36 35 34 33 32 32 32 33 34 36 36 35 33 33 33 34 35 36 36 35 35 34 33 33 33 34 34 35 35 35 36 36 36 36 38 38 38 37 36 36 36 36 36 36 36 36 36 38 38 37 38 39 41 43 43 44 44 45 46 46 45 45 45 45 45 44 43 43 42 42 42 43 42 42 40 40 40 39 38 38 38 40 40 40 42 43 43 43 43 44 44 43 43 41 42 42 41 41 40 40 39 38 37 37 37 37 38 39 40 41 41 42 44 46 45 45 44 45 45 47 47 47 47 48 47 47 48 50 50 50 49 49 49 49 49 48 48 48 48 48 48 47 47 48 49 49 48 48 48 45 40 38 39 41 42 41 42 42 41 43 44 45 46 47 46 46 46 48 45 44 43 41 40 40 42 43 43 41 40 40 41 41 40 37 38 40 39 37 34 35 37 38 37 35 37 38 37 37 39 38 38 37 36 35 33 32 30 30 30 32 32 32 31 32 33 33 34 34 34 33 34 34 33 34 33 32 31 29 30 32 34 34 35 36 37 38 36 32 31 29 27 28 27 27 28 27 27 26 27 29 29 28 29 30 30 28 28 27 28 29 31 30 32 31 30 29 28 30 30 29 31 33 33 33 33 34 36 37 38 35 34 34 35 35 32 31 30 31 29 28 29 29 29 30 31 33 35 33 33 32 33 33 31 27 25 25 25 24 22 24 26 29 32 32 31 28 26 27 27 24 23 24 31 33 34 30 28 29 34 38 38 38 39 36 34 31 29 27 25 22 22 22 21 20 21 22 22 22 24 27 28 28 28 29 29 30 30 31 30 31 33 34 34 35 35 38 41 40 36 35 40 42 45 42 42 45 47 48 47 45 45 47 49 46 35 23 19 19 12 6 1 0 0 0 0 0 0 0 0 0 0 0 0 0 0 0 0 0 0 0 0 0 0 0 0 0 0 0 0 0 0 0 0 0 0 0 0 0 0 0 0 0 0 0 0 0 0 0 0 0 0 0 0 0 0 0 0 0 0 0 0 0 0 0 0 0 0 0 0 0 0 0 0 0 0
0 0 0 0 0 0 0 0 0 0 0 0 0 0 0 0 0 0 0 0 0 0 0 0 0 0 0 0 0 0 0 0 0 0 0 0 0 0 0 0 0 0 0 0 0 0 0 0 0 0 0 0 0 0 0 0 0 0 0 0 0 0 0 0 0 0 0 0 0 0 0 0 0 0 1 2 5 16 17 20 34 47 49 49 50 53 52 48 44 40 40 41 41 38 36 34 33 33 34 34 32 31 30 31 32 32 32 30 29 29 28 28 28 27 27 28 30 31 31 32 32 33 33 33 34 34 33 32 31 32 32 33 33 32 33 33 33 33 33 33 33 34 35 36 34 35 35 35 35 36 35 35 35 36 37 37 38 37 39 41 42 40 39 38 45 47 47 44 44 45 47 45 43 45 44 43 45 45 45 45 45 44 44 42 40 40 41 40 39 38 37 36 36 38 39 40 40 42 43 42 41 39 39 38 38 38 40 41 40 37 36 36 35 35 35 36 36 36 37 36 37 37 39 42 42 41 42 42 40 37 37 38 38 41 42 42 43 42 40 39 38 39 39 37 36 37 36 34 33 31 30 31 32 34 35 38 39 38 38 37 37 39 40 40 39 36 34 33 32 31 30 30 31 34 36 36 36 34 34 35 36 36 36 36 35 34 34 34 35 35 36 35 35 34 34 34 35 36 36 38 37 37 36 36 36 36 36 36 36 36 36 36 36 37 37 38 39 41 42 43 43 43 44 45 45 45 45 45 44 44 44 43 43 42 42 41 42 42 43 42 43 43 41 39 40 41 42 42 43 44 44 44 44 43 44 44 45 45 43 44 43 43 42 41 40 38 37 37 37 37 37 38 39 40 40 42 42 44 47 46 45 43 45 46 47 47 47 47 48 48 48 49 50 50 51 50 50 50 49 49 47 47 47 48 48 48 48 47 46 47 48 47 46 45 43 40 39 39 40 41 41 41 41 40 40 41 42 44 45 45 44 44 45 44 45 44 41 40 39 42 43 41 40 39 40 44 46 44 40 39 38 36 33 31 32 34 37 37 36 36 37 37 37 36 37 36 36 34 33 32 31 30 30 31 31 31 30 29 31 33 34 35 35 34 33 34 34 34 33 31 29 28 27 30 33 35 35 36 36 38 40 38 34 32 30 28 27 26 26 26 26 26 26 26 27 28 27 29 30 31 31 29 28 28 29 31 30 32 31 30 29 28 28 28 30 31 33 33 32 33 33 35 36 37 35 34 34 34 34 34 34 32 31 28 28 28 28 27 28 30 32 35 32 32 31 32 32 28 26 23 23 26 27 25 25 26 27 29 29 29 29 26 25 25 24 22 23 31 32 33 30 29 29 32 37 38 39 39 37 34 32 30 27 24 22 23 23 22 22 23 22 22 22 23 26 27 27 29 28 28 30 30 31 31 31 32 33 35 36 36 38 41 42 35 33 39 41 44 43 41 44 45 46 47 46 43 46 48 49 41 32 21 19 17 7 3 0 0 0 0 0 0 0 0 0 0 0 0 0 0 0 0 0 0 0 0 0 0 0 0 0 0 0 0 0 0 0 0 0 0 0 0 0 0 0 0 0 0 0 0 0 0 0 0 0 0 0 0 0 0 0 0 0 0 0 0 0 0 0 0 0 0 0 0 0 0 0 0 0 0
0 0 0 0 0 0 0 0 0 0 0 0 0 0 0 0 0 0 0 0 0 0 0 0 0 0 0 0 0 0 0 0 0 0 0 0 0 0 0 0 0 0 0 0 0 0 0 0 0 0 0 0 0 0 0 0 0 0 0 0 0 0 0 0 0 0 0 0 0 0 0 0 0 1 1 4 14 19 10 34 47 52 49 50 51 51 48 46 44 42 41 39 38 36 35 33 32 32 32 32 31 31 31 32 32 31 30 29 29 29 28 27 28 28 28 29 30 31 33 33 34 33 32 33 34 33 32 31 31 32 32 32 32 32 33 33 34 34 33 33 33 34 35 36 35 35 34 35 35 35 34 35 36 38 37 39 39 40 41 41 41 39 39 40 45 45 45 42 44 45 47 43 43 44 42 42 44 44 44 43 43 43 43 42 42 41 41 40 39 38 37 36 37 37 39 40 38 39 41 42 42 41 41 39 37 37 37 38 38 36 35 34 34 33 34 36 37 38 39 38 37 38 42 42 43 43 42 41 41 39 39 39 40 40 41 42 42 42 41 40 39 38 39 38 37 36 37 34 34 32 30 31 32 33 34 36 38 39 39 39 39 40 40 40 37 34 32 30 29 29 30 31 32 35 37 37 37 35 35 36 37 37 36 36 36 35 35 35 36 36 36 34 33 33 34 34 35 35 36 37 38 37 37 37 36 36 35 35 36 36 36 36 37 37 37 37 39 40 42 42 43 43 44 45 45 45 45 45 45 44 43 43 43 42 41 41 42 43 42 42 43 44 43 41 42 42 43 43 43 43 43 43 43 44 45 45 46 47 45 44 43 43 43 40 38 37 36 36 36 37 38 39 40 40 41 42 42 44 47 47 46 44 45 45 46 47 47 48 49 49 49 50 50 50 51 51 51 51 50 48 47 47 48 47 48 48 48 47 45 46 46 45 45 45 42 39 41 42 42 42 42 42 41 41 41 41 43 45 44 45 45 45 45 46 46 45 42 40 38 42 41 41 39 38 40 42 43 44 40 39 36 33 31 31 32 33 34 35 37 37 38 38 36 36 36 36 36 35 34 34 32 33 32 32 31 31 30 29 30 33 35 35 35 33 33 33 34 35 34 31 29 27 27 30 34 36 35 36 38 39 40 40 36 32 30 28 28 26 26 26 27 26 26 26 26 26 26 28 30 31 31 30 30 30 31 31 31 33 32 31 30 31 30 29 31 31 32 35 34 33 32 34 35 35 34 34 34 34 33 34 35 34 31 31 28 29 28 28 29 30 32 32 33 31 32 34 33 30 26 24 24 27 28 28 27 27 26 27 26 26 27 25 25 25 26 25 25 28 32 32 29 29 29 30 36 37 37 38 40 37 32 29 29 26 23 23 24 23 23 23 23 22 21 23 26 26 27 27 29 29 30 30 32 31 32 34 33 35 37 36 36 38 43 39 33 32 41 43 43 40 42 45 46 46 48 46 45 46 49 47 41 24 21 21 12 9 1 0 0 0 0 0 0 0 0 0 0 0 0 0 0 0 0 0 0 0 0 0 0 0 0 0 0 0 0 0 0 0 0 0 0 0 0 0 0 0 0 0 0 0 0 0 0 0 0 0 0 0 0 0 0 0 0 0 0 0 0 0 0 0 0 0 0 0 0 0 0 0 0 0
0 0 0 0 0 0 0 0 0 0 0 0 0 0 0 0 0 0 0 0 0 0 0 0 0 0 0 0 0 0 0 0 0 0 0 0 0 0 0 0 0 0 0 0 0 0 0 0 0 0 0 0 0 0 0 0 0 0 0 0 0 0 0 0 0 0 0 0 0 0 0 0 0 2 4 6 13 10 24 46 50 52 48 48 49 49 46 45 44 41 39 38 37 35 34 33 31 31 32 32 32 32 32 31 31 31 30 30 29 29 29 28 27 28 29 29 30 32 33 34 34 33 32 33 34 33 32 31 32 33 33 33 33 33 33 33 34 34 33 33 33 34 34 35 35 35 35 35 35 35 35 36 36 39 38 40 41 41 40 39 38 38 39 39 43 43 44 43 43 44 44 42 42 44 43 43 44 43 43 42 43 42 42 42 42 40 40 39 40 39 37 37 38 38 39 39 37 38 40 41 43 42 41 39 37 36 35 37 38 36 35 33 33 33 34 35 37 38 39 38 38 38 42 42 42 42 41 41 41 40 40 40 40 40 41 42 42 42 41 41 40 40 40 39 37 36 37 35 34 32 31 31 32 33 34 34 37 38 39 38 38 39 39 38 36 33 31 30 29 29 31 32 32 35 37 37 36 35 36 38 39 39 38 37 37 36 37 37 36 35 34 33 33 33 34 34 35 36 36 37 39 38 37 37 36 36 35 35 36 36 36 37 37 37 37 37 39 40 41 42 42 43 44 45 46 45 45 46 44 44 43 43 43 42 42 42 43 44 42 42 43 45 45 44 44 43 43 43 43 43 43 44 44 44 44 45 46 48 46 45 43 42 41 39 37 37 37 36 36 37 38 40 40 40 41 42 42 44 47 47 46 45 46 45 45 45 46 48 49 50 50 51 50 50 51 51 50 50 49 48 48 47 47 47 47 48 48 47 47 46 46 45 43 43 41 40 43 44 44 43 40 40 40 39 40 40 42 43 44 44 45 45 46 46 47 45 43 42 40 40 40 40 39 39 40 39 40 40 42 41 37 34 32 32 33 34 36 36 37 38 38 37 36 36 35 36 36 36 36 34 33 35 36 35 34 33 30 29 30 33 34 35 35 34 33 33 34 35 35 32 31 28 26 29 33 34 36 37 38 40 41 39 36 31 28 28 27 26 27 27 28 28 26 26 25 25 25 26 27 28 29 29 30 31 32 32 32 34 34 33 32 32 31 30 31 31 33 34 34 32 31 33 35 36 33 32 33 33 32 34 35 35 33 33 30 29 29 29 28 28 30 31 32 32 33 34 33 30 27 24 25 27 29 29 29 28 27 28 28 26 25 25 25 25 26 26 27 29 32 32 30 29 31 32 36 35 36 36 38 36 32 30 29 27 25 24 24 24 24 24 24 25 23 24 26 26 24 24 26 28 30 31 32 33 32 33 32 34 36 36 35 34 39 39 37 30 36 40 44 41 40 43 45 47 48 47 46 45 48 49 47 35 21 21 16 13 5 0 0 0 0 0 0 0 0 0 0 0 0 0 0 0 0 0 0 0 0 0 0 0 0 0 0 0 0 0 0 0 0 0 0 0 0 0 0 0 0 0 0 0 0 0 0 0 0 0 0 0 0 0 0 0 0 0 0 0 0 0 0 0 0 0 0 0 0 0 0 0 0 0
0 0 0 0 0 0 0 0 0 0 0 0 0 0 0 0 0 0 0 0 0 0 0 0 0 0 0 0 0 0 0 0 0 0 0 0 0 0 0 0 0 0 0 0 0 0 0 0 0 0 0 0 0 0 0 0 0 0 0 0 0 0 0 0 0 0 0 0 0 0 0 0 2 4 6 13 9 18 37 51 52 51 48 48 47 47 45 45 43 40 37 37 36 35 33 31 31 31 33 33 33 33 33 31 31 31 30 30 30 30 29 28 28 29 30 31 31 33 35 35 34 33 33 33 34 33 32 32 33 34 33 33 34 34 34 34 34 34 34 34 33 34 34 34 37 38 37 37 36 35 35 36 36 39 38 38 38 38 36 35 35 37 39 38 39 38 40 41 41 42 43 41 42 44 45 45 43 43 41 40 41 41 42 41 42 40 40 40 40 40 39 38 39 39 38 38 36 37 40 41 42 41 40 39 37 35 34 36 37 36 35 33 33 33 34 35 37 39 39 38 38 37 40 40 42 42 42 42 42 41 40 40 39 39 40 40 41 42 41 41 40 40 40 38 37 36 36 35 34 33 32 32 33 33 34 34 37 38 39 38 38 38 38 37 35 33 32 31 31 31 32 32 32 35 37 36 36 36 38 40 41 41 40 39 37 37 38 37 36 35 34 34 34 34 34 35 36 36 37 37 39 38 37 36 35 35 34 35 35 36 37 37 38 38 38 39 39 40 41 42 42 42 43 44 44 44 44 45 44 44 43 43 43 42 42 42 43 44 42 41 42 46 46 46 45 43 43 42 41 41 42 43 43 43 43 44 45 45 44 43 43 42 41 40 38 37 37 36 37 38 39 40 41 42 42 42 42 43 46 47 47 46 46 45 45 46 46 47 49 50 50 51 51 51 51 51 50 51 50 50 47 46 45 45 46 47 49 48 48 47 46 45 43 43 41 41 42 44 47 45 40 38 39 38 39 41 43 43 44 44 44 45 46 47 47 43 41 43 42 39 39 40 42 43 44 41 40 39 40 41 39 38 36 36 35 35 34 36 37 39 38 36 36 36 36 37 36 36 36 34 32 34 37 38 36 35 30 29 30 33 33 35 35 35 33 33 33 33 33 33 32 29 27 28 32 34 35 37 39 40 42 40 36 31 28 29 29 27 27 28 28 27 25 25 23 24 24 25 27 28 27 27 28 29 31 32 32 33 33 33 31 31 31 31 32 31 31 33 33 31 31 32 33 35 34 33 33 33 34 34 34 34 35 32 29 29 30 29 29 29 30 31 32 32 33 34 33 30 29 26 25 26 27 27 28 28 28 29 29 27 25 25 25 26 27 28 28 31 32 31 30 30 32 32 36 35 34 34 37 34 29 28 26 25 25 24 26 26 26 25 25 26 24 25 25 26 25 24 25 27 29 31 32 34 33 33 32 34 35 36 35 33 36 37 38 33 33 37 43 39 40 43 45 47 48 47 46 44 45 49 49 44 26 21 19 16 9 2 1 0 0 0 0 0 0 0 0 0 0 0 0 0 0 0 0 0 0 0 0 0 0 0 0 0 0 0 0 0 0 0 0 0 0 0 0 0 0 0 0 0 0 0 0 0 0 0 0 0 0 0 0 0 0 0 0 0 0 0 0 0 0 0 0 0 0 0 0 0 0 0
0 0 0 0 0 0 0 0 0 0 0 0 0 0 0 0 0 0 0 0 0 0 0 0 0 0 0 0 0 0 0 0 0 0 0 0 0 0 0 0 0 0 0 0 0 0 0 0 0 0 0 0 0 0 0 0 0 0 0 0 0 0 0 0 0 0 0 0 0 0 0 1 1 6 13 13 13 29 45 53 54 51 48 48 47 47 44 44 40 38 36 35 35 35 34 33 32 32 33 33 33 33 32 32 31 30 30 29 30 30 30 29 29 30 31 31 32 34 34 35 34 33 33 34 34 34 33 33 34 34 33 33 33 33 33 33 33 34 34 34 34 34 35 36 38 39 38 36 35 35 35 37 38 39 38 38 37 36 36 35 36 38 39 38 37 37 39 39 41 42 42 41 42 43 44 44 43 42 40 39 38 40 41 40 40 40 40 41 41 41 40 40 40 39 38 37 36 37 39 39 39 38 38 38 38 36 36 36 36 36 34 33 34 33 34 34 36 38 39 38 38 37 39 40 42 42 43 43 42 41 39 38 37 38 39 39 40 41 41 41 40 40 39 37 36 35 35 35 35 34 33 33 33 34 34 34 36 37 38 37 37 37 37 37 35 34 32 33 34 35 34 33 34 35 36 35 35 35 38 40 41 42 41 40 38 37 37 36 36 35 35 35 35 35 35 36 37 36 37 38 39 38 37 36 35 34 34 34 35 35 37 38 39 39 39 40 40 40 41 41 42 42 42 42 43 43 44 44 44 43 43 43 42 42 42 43 42 43 42 42 43 45 46 46 46 45 44 44 42 42 41 42 42 43 43 43 44 44 42 42 43 43 42 41 40 39 38 37 37 39 41 42 42 42 42 42 41 42 44 46 46 47 47 46 45 45 45 45 47 48 50 52 52 51 51 51 51 52 51 51 49 47 46 46 46 46 47 47 46 44 43 43 43 41 42 41 41 43 45 42 37 35 36 36 35 39 41 42 43 43 44 43 44 46 48 44 41 41 41 39 37 39 41 43 43 41 40 39 40 40 40 40 38 37 36 34 34 35 36 37 37 37 36 37 37 37 36 36 35 34 32 34 36 37 35 34 30 28 30 33 34 35 34 34 33 33 33 33 32 32 32 30 28 29 30 32 34 36 38 39 42 41 39 32 28 29 29 27 28 28 28 26 25 25 23 25 25 26 27 28 28 28 27 28 30 31 32 33 33 32 31 31 32 32 32 32 32 33 33 30 31 32 34 34 32 32 33 32 34 33 33 32 34 30 29 29 30 29 31 30 31 32 33 32 32 32 31 30 29 26 25 26 26 24 25 26 29 29 30 28 26 26 26 27 28 29 29 31 31 29 29 29 30 30 32 32 32 33 35 34 29 27 26 24 24 26 27 28 26 25 25 27 26 25 24 26 25 24 24 25 27 31 32 34 35 33 33 34 34 34 34 33 32 33 37 35 33 34 42 41 40 43 45 46 46 46 45 44 44 47 48 50 37 25 20 20 15 5 3 0 0 0 0 0 0 0 0 0 0 0 0 0 0 0 0 0 0 0 0 0 0 0 0 0 0 0 0 0 0 0 0 0 0 0 0 0 0 0 0 0 0 0 0 0 0 0 0 0 0 0 0 0 0 0 0 0 0 0 0 0 0 0 0 0 0 0 0 0 0 0
0 0 0 0 0 0 0 0 0 0 0 0 0 0 0 0 0 0 0 0 0 0 0 0 0 0 0 0 0 0 0 0 0 0 0 0 0 0 0 0 0 0 0 0 0 0 0 0 0 0 0 0 0 0 0 0 0 0 0 0 0 0 0 0 0 0 0 0 0 0 0 3 4 9 14 7 26 40 48 52 52 50 49 48 46 46 42 41 38 37 36 35 35 35 35 34 34 33 33 33 32 32 32 31 30 30 30 30 30 31 31 30 30 30 30 30 31 33 34 34 33 33 33 34 34 34 34 35 35 34 34 33 33 33 32 32 33 33 34 35 34 34 34 36 40 41 39 37 36 36 37 38 38 38 37 37 37 37 36 36 38 38 39 39 40 41 42 40 41 42 42 42 41 42 43 42 43 42 41 39 37 38 40 40 39 39 40 41 41 41 41 41 40 39 38 37 36 36 37 37 36 37 36 36 37 37 36 35 36 34 32 33 35 34 34 35 35 36 37 38 38 37 38 39 39 40 41 43 43 42 40 39 36 37 38 38 38 39 39 40 39 39 38 36 35 34 35 35 36 36 34 33 32 33 34 34 35 35 37 36 36 36 36 36 36 35 34 35 37 38 36 34 34 36 36 36 35 36 38 40 41 41 41 40 38 37 37 36 37 37 36 36 36 36 36 36 37 36 37 38 39 38 37 36 35 35 35 35 35 35 37 38 40 40 40 40 41 40 41 41 41 41 41 41 42 43 44 44 44 44 43 43 42 42 43 42 42 43 43 43 44 45 46 46 47 46 46 45 44 42 41 41 41 41 42 42 43 43 43 43 43 43 42 42 42 41 40 38 38 40 42 42 41 41 41 42 42 41 42 44 46 47 47 46 46 46 45 45 46 47 49 51 51 51 50 50 51 53 51 51 49 49 47 47 46 45 46 46 45 44 41 42 43 43 42 40 40 41 43 40 37 36 36 35 35 39 41 43 44 44 43 42 41 44 45 43 41 40 39 39 37 39 40 42 42 40 39 38 40 41 43 41 37 35 34 33 34 34 33 33 34 37 37 38 37 37 35 35 34 33 31 33 36 35 33 32 29 28 29 31 33 33 32 32 32 33 33 32 31 31 31 31 30 29 30 32 33 35 37 40 43 42 39 32 28 29 28 26 28 29 28 27 24 24 22 24 24 26 27 28 27 27 26 27 29 30 30 31 31 30 30 31 32 32 32 32 32 33 31 29 29 31 33 34 33 34 34 33 34 34 33 32 33 31 30 28 29 29 31 30 31 31 32 32 30 30 29 28 27 25 24 25 25 22 22 25 31 30 30 29 27 27 26 27 27 30 31 31 31 29 28 28 29 30 32 31 31 33 35 34 29 24 22 22 24 28 29 28 26 24 24 26 26 25 23 26 27 26 25 24 25 29 31 33 34 33 33 33 34 33 34 32 30 32 33 39 34 34 38 42 40 42 44 45 45 44 45 45 46 47 47 51 46 31 21 20 22 9 5 0 0 0 0 0 0 0 0 0 0 0 0 0 0 0 0 0 0 0 0 0 0 0 0 0 0 0 0 0 0 0 0 0 0 0 0 0 0 0 0 0 0 0 0 0 0 0 0 0 0 0 0 0 0 0 0 0 0 0 0 0 0 0 0 0 0 0 0 0 0 0
0 0 0 0 0 0 0 0 0 0 0 0 0 0 0 0 0 0 0 0 0 0 0 0 0 0 0 0 0 0 0 0 0 0 0 0 0 0 0 0 0 0 0 0 0 0 0 0 0 0 0 0 0 0 0 0 0 0 0 0 0 0 0 0 0 0 0 0 0 0 0 4 3 14 15 14 35 47 51 49 48 50 49 47 46 45 41 39 37 36 36 35 35 35 36 35 35 33 33 32 32 32 32 30 29 29 29 30 31 31 31 30 29 29 29 30 31 34 35 35 34 34 35 34 34 34 34 35 35 35 34 33 34 33 32 32 32 34 35 35 34 33 35 36 39 39 37 36 35 36 37 37 37 37 36 36 36 35 35 36 37 38 40 42 44 44 43 40 40 41 42 42 42 42 43 43 42 42 41 40 37 38 39 38 38 39 40 41 41 40 41 41 40 38 38 38 36 35 35 35 34 35 35 35 35 36 37 37 36 34 33 33 35 35 35 36 35 36 37 39 38 38 39 39 40 40 40 41 42 41 39 37 36 37 37 38 38 37 37 39 38 39 38 37 35 35 36 36 37 37 35 34 33 33 34 35 36 36 36 35 35 36 36 37 37 37 37 40 41 41 38 35 35 36 36 36 36 36 38 40 42 41 41 39 37 37 37 37 38 38 38 37 37 37 36 35 36 38 39 38 38 37 36 36 36 36 35 36 36 36 38 39 40 40 40 40 40 40 40 40 40 41 41 41 42 43 45 45 45 45 45 44 43 43 43 42 42 43 44 43 44 45 46 47 47 46 46 45 44 43 42 42 41 41 41 42 43 44 43 43 44 44 43 43 43 43 41 40 40 41 41 41 40 40 41 41 42 42 42 43 45 46 46 45 45 45 46 46 47 47 49 50 51 51 50 51 53 55 53 52 51 51 50 49 47 46 45 44 44 43 41 42 44 45 42 40 38 38 39 39 39 39 37 35 37 39 40 42 43 43 42 40 41 42 42 42 41 41 40 39 38 39 39 40 39 38 38 38 39 41 42 39 36 34 32 31 33 33 31 31 33 37 37 35 34 34 33 33 33 33 32 33 32 31 30 29 28 28 28 29 33 32 30 31 31 33 33 30 30 31 32 32 30 30 31 31 32 34 36 39 41 39 36 31 30 30 29 27 27 28 27 27 25 24 23 23 23 24 26 27 28 28 27 27 28 30 30 30 30 30 30 31 33 33 33 34 33 33 31 29 28 30 33 36 35 34 34 34 33 33 31 30 31 30 31 29 29 30 32 31 31 32 33 32 30 28 28 26 26 26 25 25 24 23 24 27 30 30 29 29 27 28 27 26 27 30 31 31 30 29 29 28 29 30 31 32 33 34 35 34 31 24 19 19 23 28 29 29 27 25 23 24 25 25 24 27 27 26 25 24 24 26 29 32 33 32 33 34 35 34 35 32 30 32 33 38 35 34 36 40 40 41 43 45 45 44 45 45 47 47 47 50 50 40 28 20 24 13 9 3 0 0 0 0 0 0 0 0 0 0 0 0 0 0 0 0 0 0 0 0 0 0 0 0 0 0 0 0 0 0 0 0 0 0 0 0 0 0 0 0 0 0 0 0 0 0 0 0 0 0 0 0 0 0 0 0 0 0 0 0 0 0 0 0 0 0 0 0 0 0
0 0 0 0 0 0 0 0 0 0 0 0 0 0 0 0 0 0 0 0 0 0 0 0 0 0 0 0 0 0 0 0 0 0 0 0 0 0 0 0 0 0 0 0 0 0 0 0 0 0 0 0 0 0 0 0 0 0 0 0 0 0 0 0 0 0 0 0 0 0 1 5 13 15 14 29 47 51 50 49 48 49 48 46 45 43 40 38 38 37 36 35 35 36 37 36 34 32 31 31 31 32 31 29 28 29 30 31 31 32 31 30 30 29 30 31 32 35 35 36 34 34 34 35 34 34 35 35 35 36 35 34 34 33 32 32 32 34 35 35 34 34 35 37 37 37 37 37 37 37 37 38 37 37 35 35 35 35 36 37 37 39 42 45 46 44 43 39 39 41 42 42 42 42 43 43 42 43 42 40 37 37 39 38 38 39 40 41 41 40 41 41 41 40 39 38 36 35 34 34 33 35 36 35 34 35 35 36 36 35 35 34 34 34 34 35 34 35 37 38 39 39 41 41 41 40 39 39 40 41 38 37 36 37 37 38 38 37 36 38 38 38 37 37 36 36 36 36 38 37 36 35 34 34 34 35 35 35 36 34 36 37 37 37 38 37 37 39 40 39 37 36 36 36 35 35 35 37 39 41 42 41 41 39 37 38 37 37 39 38 38 38 37 37 36 36 37 39 39 38 37 37 36 36 36 36 36 36 37 37 39 40 41 40 39 39 39 39 39 39 40 41 42 42 43 45 45 46 46 46 46 45 45 44 43 42 42 43 43 43 44 44 45 46 46 46 47 45 44 44 42 41 42 42 42 42 43 42 42 42 44 44 44 44 44 43 42 42 42 42 41 41 42 42 42 42 42 42 43 44 45 45 44 44 45 45 46 46 48 47 48 49 50 51 50 51 53 56 54 53 53 52 50 49 48 49 47 46 45 44 43 43 45 47 44 41 38 38 39 40 41 41 39 36 37 38 40 41 41 42 41 40 40 42 42 41 41 41 39 39 39 41 40 39 38 38 37 38 37 39 40 38 36 35 33 31 32 31 28 31 34 34 33 32 32 31 30 32 33 34 33 32 31 31 30 28 28 28 29 29 31 32 31 31 31 33 32 31 30 30 31 32 31 31 31 30 30 32 34 35 35 34 31 29 29 29 29 27 27 28 27 27 26 25 23 23 23 24 25 26 28 28 27 27 29 29 30 29 31 31 30 31 32 33 32 33 33 32 30 29 29 31 33 36 34 34 34 34 33 33 32 31 31 30 30 30 30 30 31 31 33 34 34 32 30 29 28 26 26 27 26 26 26 25 27 29 29 29 29 29 29 29 28 26 28 29 31 31 30 30 29 30 30 31 32 33 34 36 36 34 34 29 22 20 23 25 27 28 27 26 24 23 23 24 25 27 27 26 24 25 26 26 28 30 31 30 32 33 34 34 35 32 32 31 34 38 36 34 34 39 39 40 43 45 45 44 47 46 47 47 48 48 50 46 35 22 23 18 13 7 2 0 0 0 0 0 0 0 0 0 0 0 0 0 0 0 0 0 0 0 0 0 0 0 0 0 0 0 0 0 0 0 0 0 0 0 0 0 0 0 0 0 0 0 0 0 0 0 0 0 0 0 0 0 0 0 0 0 0 0 0 0 0 0 0 0 0 0 0 0
0 0 0 0 0 0 0 0 0 0 0 0 0 0 0 0 0 0 0 0 0 0 0 0 0 0 0 0 0 0 0 0 0 0 0 0 0 0 0 0 0 0 0 0 0 0 0 0 0 0 0 0 0 0 0 0 0 0 0 0 0 0 0 0 0 0 0 0 0 1 3 9 13 7 23 43 51 52 49 47 48 47 45 45 44 40 39 38 39 38 38 36 35 37 37 35 34 31 30 31 31 31 30 29 29 29 30 31 31 31 30 29 30 29 31 32 33 34 34 34 34 34 34 34 33 34 34 35 36 36 35 33 32 32 32 32 32 34 35 35 33 34 35 36 36 37 36 37 36 37 37 37 36 36 35 34 35 35 35 35 38 40 44 48 45 42 42 38 39 41 43 42 42 43 44 44 43 43 43 41 37 38 39 37 38 39 41 41 41 40 41 42 41 40 39 38 37 35 35 34 33 34 36 35 34 33 33 35 37 37 37 35 34 35 35 35 35 35 36 38 38 39 41 41 40 40 39 38 39 40 38 36 37 37 37 37 38 37 36 37 38 38 37 37 38 37 36 37 38 37 37 36 35 35 35 35 35 34 35 34 36 38 38 38 38 37 38 40 41 40 39 38 37 36 35 34 34 36 39 40 42 42 42 39 37 39 39 38 38 38 37 37 36 36 36 37 38 38 38 38 37 38 38 36 36 37 38 37 37 38 39 41 41 39 38 38 39 39 39 39 40 41 42 43 45 45 45 46 46 46 47 46 46 45 43 42 41 42 43 42 44 44 45 46 47 48 48 46 44 44 43 42 43 43 44 43 42 42 42 43 45 45 45 45 44 43 42 42 43 43 42 42 43 44 44 43 43 44 44 45 45 44 43 43 45 46 47 47 48 47 47 49 50 50 49 50 52 54 53 54 53 52 50 49 48 49 47 45 45 44 43 43 45 46 44 40 40 39 42 42 43 39 38 36 37 37 40 42 43 43 41 40 40 43 42 42 42 40 39 38 38 40 40 38 38 37 37 38 37 37 38 37 35 34 33 31 32 30 28 32 33 32 32 32 31 29 30 31 32 34 34 32 32 31 30 28 27 27 28 30 31 32 31 31 31 33 32 31 30 30 31 32 32 31 31 30 29 30 32 33 33 31 28 26 27 28 28 27 27 27 26 27 27 25 24 23 23 23 23 24 26 26 25 25 28 29 29 29 31 31 30 30 30 32 31 31 31 31 31 30 31 31 31 33 33 32 32 31 31 31 32 31 31 31 30 30 31 31 30 31 31 33 33 32 30 30 30 28 27 27 27 27 26 25 27 30 30 29 28 30 30 30 29 28 28 29 30 32 30 30 29 31 32 32 33 35 35 36 35 33 32 33 25 21 23 22 25 26 26 26 25 24 22 24 25 26 25 24 21 22 25 26 28 29 29 28 30 33 34 35 36 34 35 31 32 33 35 33 35 36 38 39 42 43 44 45 48 45 45 48 47 46 48 48 42 30 22 21 16 11 5 0 0 0 0 0 0 0 0 0 0 0 0 0 0 0 0 0 0 0 0 0 0 0 0 0 0 0 0 0 0 0 0 0 0 0 0 0 0 0 0 0 0 0 0 0 0 0 0 0 0 0 0 0 0 0 0 0 0 0 0 0 0 0 0 0 0 0 0 0
0 0 0 0 0 0 0 0 0 0 0 0 0 0 0 0 0 0 0 0 0 0 0 0 0 0 0 0 0 0 0 0 0 0 0 0 0 0 0 0 0 0 0 0 0 0 0 0 0 0 0 0 0 0 0 0 0 0 0 0 0 0 0 0 0 0 0 0 1 2 6 16 15 7 35 48 52 52 49 48 48 45 46 44 42 39 38 38 38 39 40 38 37 36 35 34 31 31 30 30 30 29 29 29 29 29 30 31 31 31 30 29 30 31 32 32 33 34 33 34 33 33 33 33 34 34 35 35 36 36 35 33 32 31 31 31 31 33 36 36 35 35 35 35 36 36 37 37 37 36 36 36 37 36 36 35 35 36 37 36 39 41 44 48 42 40 39 37 39 42 43 43 42 42 44 43 43 43 43 41 38 38 38 38 38 40 41 41 40 40 40 41 40 40 39 38 37 36 35 34 34 36 36 36 34 32 33 34 36 37 38 36 34 34 35 35 36 35 35 36 37 39 40 40 40 39 39 39 38 39 38 36 36 36 37 36 38 37 35 36 37 37 36 37 37 36 36 36 37 38 38 37 36 35 36 35 34 34 34 35 37 38 39 39 38 38 39 41 43 42 41 40 38 36 34 33 34 36 40 42 42 42 40 39 38 38 39 39 38 38 37 36 34 35 37 38 39 39 37 37 37 37 37 37 37 38 38 37 37 39 40 41 41 39 37 38 38 38 39 39 39 41 44 44 44 45 45 45 45 46 46 46 46 44 43 42 42 42 43 43 44 44 45 46 47 47 46 45 44 44 44 43 44 44 44 44 43 43 43 43 45 46 46 45 44 43 42 43 43 43 43 42 44 44 44 44 43 43 44 45 44 43 43 44 47 47 46 47 48 48 47 48 49 48 49 49 50 52 53 54 52 50 49 47 48 48 47 46 45 43 43 44 46 46 44 42 40 40 42 43 42 39 37 37 37 36 38 41 41 41 41 41 40 41 42 42 42 40 39 38 38 39 40 38 36 36 38 38 37 36 37 36 35 33 32 31 32 30 29 32 33 31 32 31 30 30 30 31 32 34 33 33 33 32 30 29 27 28 31 32 32 33 33 32 32 33 32 32 30 30 30 31 31 31 31 31 30 30 30 31 30 30 28 25 26 27 28 27 27 27 26 27 27 26 26 26 24 24 23 23 24 25 25 25 27 28 29 30 33 32 31 30 30 31 30 30 30 30 30 32 32 33 31 30 30 31 31 32 31 31 31 30 31 30 30 30 31 31 31 31 31 32 33 33 31 29 30 30 28 28 27 28 27 27 28 29 29 29 28 30 30 31 29 28 29 29 30 31 31 31 31 32 33 33 34 37 36 36 34 31 30 31 28 22 23 21 23 26 27 26 26 24 22 24 26 25 25 24 20 21 23 26 26 28 28 27 29 31 33 34 35 35 35 32 33 33 35 35 36 36 37 40 41 42 42 44 46 46 45 47 47 47 47 49 49 39 25 21 19 17 9 2 0 0 0 0 0 0 0 0 0 0 0 0 0 0 0 0 0 0 0 0 0 0 0 0 0 0 0 0 0 0 0 0 0 0 0 0 0 0 0 0 0 0 0 0 0 0 0 0 0 0 0 0 0 0 0 0 0 0 0 0 0 0 0 0 0 0 0 0
0 0 0 0 0 0 0 0 0 0 0 0 0 0 0 0 0 0 0 0 0 0 0 0 0 0 0 0 0 0 0 0 0 0 0 0 0 0 0 0 0 0 0 0 0 0 0 0 0 0 0 0 0 0 0 0 0 0 0 0 0 0 0 0 0 0 0 1 1 4 15 22 8 19 47 53 51 49 49 47 47 44 44 42 40 38 38 38 40 41 42 40 37 36 35 34 32 32 31 31 30 30 29 30 30 30 30 30 30 30 30 30 30 31 32 33 32 33 33 33 32 32 33 34 34 34 35 35 36 35 35 33 31 31 32 32 32 33 34 35 35 35 35 34 36 36 37 37 37 37 36 36 37 37 37 37 38 40 40 39 40 42 44 46 42 40 41 41 42 43 43 43 43 42 43 43 43 43 43 42 39 39 38 38 38 40 41 41 39 38 38 39 38 38 38 38 38 36 35 33 35 35 36 36 34 33 34 34 35 36 38 37 35 34 35 35 35 34 34 34 35 37 38 38 37 37 38 38 37 37 36 35 36 35 35 35 36 35 34 35 35 36 36 36 35 35 35 35 36 38 39 39 37 36 36 35 34 34 34 34 35 37 38 38 37 37 39 41 44 43 42 41 37 34 33 33 35 38 40 41 42 41 40 39 38 39 39 39 39 38 36 35 34 35 37 39 39 38 37 36 36 36 36 36 36 37 38 37 37 39 41 41 41 39 38 38 38 38 39 39 40 42 43 44 44 44 45 45 45 46 45 45 45 43 42 42 42 42 44 43 44 44 45 46 47 47 47 47 47 47 47 45 45 45 44 44 43 43 44 44 46 46 46 46 45 44 42 43 42 42 42 42 42 43 43 43 43 43 45 45 44 43 43 45 46 46 46 47 47 47 47 48 48 49 50 50 50 51 52 52 50 48 47 46 47 47 46 45 45 45 45 44 44 44 45 44 42 41 42 42 42 39 37 38 38 38 38 39 40 40 42 41 39 40 42 42 40 40 38 37 37 37 37 36 35 39 39 38 37 35 34 33 34 33 32 30 32 31 29 31 33 31 30 30 30 31 31 32 31 32 32 31 30 28 27 28 26 27 30 31 32 34 34 33 32 32 32 32 30 30 30 30 31 31 30 30 31 31 31 30 30 30 29 27 27 27 27 27 27 27 26 26 27 26 27 26 25 24 23 24 24 24 25 24 26 26 28 30 31 31 31 30 29 29 29 29 29 29 30 32 32 30 28 27 29 29 30 31 30 30 31 30 29 29 30 30 30 30 30 30 31 32 33 34 32 30 31 31 30 29 28 28 29 29 31 32 30 29 27 28 28 29 28 28 28 28 29 30 31 31 32 33 35 34 34 37 36 36 34 32 28 29 27 23 24 23 25 26 27 25 25 23 22 23 25 25 26 25 21 19 21 24 26 27 28 26 28 30 32 33 35 36 35 33 33 33 35 36 39 37 37 39 40 41 42 43 45 44 44 46 48 46 45 48 51 47 34 21 19 21 12 5 1 0 0 0 0 0 0 0 0 0 0 0 0 0 0 0 0 0 0 0 0 0 0 0 0 0 0 0 0 0 0 0 0 0 0 0 0 0 0 0 0 0 0 0 0 0 0 0 0 0 0 0 0 0 0 0 0 0 0 0 0 0 0 0 0 0 0 0
0 0 0 0 0 0 0 0 0 0 0 0 0 0 0 0 0 0 0 0 0 0 0 0 0 0 0 0 0 0 0 0 0 0 0 0 0 0 0 0 0 0 0 0 0 0 0 0 0 0 0 0 0 0 0 0 0 0 0 0 0 0 0 0 0 0 0 0 3 8 15 14 17 30 51 51 51 51 55 49 46 44 44 41 38 37 37 38 40 42 43 41 38 36 34 33 33 33 32 31 31 30 30 30 30 30 30 30 29 29 30 31 31 32 33 32 32 32 32 32 31 32 33 34 34 34 34 34 35 35 34 33 31 31 32 33 33 32 33 35 36 35 34 34 35 35 35 36 37 37 36 36 36 38 38 39 39 40 40 40 40 41 44 45 42 42 44 43 44 43 42 42 42 43 44 44 43 44 44 43 40 40 39 38 39 40 40 39 38 37 37 38 37 36 37 38 39 38 36 35 35 34 34 35 34 33 34 34 33 35 36 37 35 34 34 35 35 34 34 33 34 35 36 36 35 35 36 36 36 38 38 37 36 35 35 35 36 36 34 35 35 36 36 35 35 34 34 34 35 37 38 39 38 37 36 35 33 34 34 35 36 37 38 38 37 38 40 42 44 43 42 40 34 33 32 34 36 39 40 41 41 40 40 39 38 39 39 38 39 37 36 36 36 37 38 38 39 38 36 36 36 36 36 36 36 37 37 37 38 39 40 41 41 40 39 39 39 39 39 40 40 41 42 43 44 44 45 45 45 45 45 45 44 43 42 42 43 43 43 42 43 44 45 46 47 48 48 48 48 48 47 46 46 46 45 45 44 44 45 46 46 46 46 46 46 44 43 43 42 42 42 42 41 41 41 42 41 42 44 45 44 43 44 45 46 46 46 46 46 46 46 47 47 49 50 50 49 50 50 50 48 47 46 46 46 45 47 48 48 47 47 45 46 48 49 47 44 41 41 41 43 42 38 39 39 39 38 38 38 38 40 39 38 39 40 42 41 40 38 37 36 37 37 37 39 44 41 37 35 34 32 31 33 34 33 33 31 31 30 31 33 32 31 30 32 32 32 32 32 33 31 30 27 26 25 28 28 28 29 30 31 33 33 33 33 32 32 32 30 29 29 30 30 30 31 31 32 31 31 30 30 31 30 29 29 28 28 27 27 27 26 26 27 26 26 25 24 24 24 24 25 25 25 25 25 25 27 28 29 29 30 29 29 29 29 30 29 28 29 31 31 29 26 26 28 29 31 32 32 32 31 31 30 29 29 29 29 29 29 29 30 31 33 34 34 34 33 32 30 28 27 28 30 30 31 31 31 29 26 28 28 29 28 27 28 28 29 30 31 31 32 33 35 34 33 34 34 34 33 32 29 27 27 26 25 25 26 27 28 26 24 23 22 23 25 25 24 24 22 20 20 22 23 25 27 26 27 29 31 32 35 38 34 34 35 36 36 37 40 38 36 38 41 42 42 42 44 42 44 44 46 45 45 45 49 50 43 25 19 23 17 11 3 0 0 0 0 0 0 0 0 0 0 0 0 0 0 0 0 0 0 0 0 0 0 0 0 0 0 0 0 0 0 0 0 0 0 0 0 0 0 0 0 0 0 0 0 0 0 0 0 0 0 0 0 0 0 0 0 0 0 0 0 0 0 0 0 0 0 0
0 0 0 0 0 0 0 0 0 0 0 0 0 0 0 0 0 0 0 0 0 0 0 0 0 0 0 0 0 0 0 0 0 0 0 0 0 0 0 0 0 0 0 0 0 0 0 0 0 0 0 0 0 0 0 0 0 0 0 0 0 0 0 0 0 0 0 2 4 13 17 11 30 37 50 48 51 53 57 48 46 44 43 40 38 37 37 38 41 42 43 41 38 35 34 34 33 33 32 31 31 30 30 30 29 29 30 30 30 30 31 31 32 32 32 32 31 31 31 32 32 32 33 33 33 33 33 33 34 33 33 32 31 32 33 33 32 31 32 34 35 35 35 35 36 35 35 35 36 36 36 36 36 38 39 38 38 39 39 38 38 40 42 44 43 43 45 44 43 42 41 42 43 44 45 44 44 44 44 43 41 40 40 40 39 39 38 37 37 38 38 37 36 35 35 36 38 38 37 36 35 33 32 33 33 33 33 34 34 35 36 37 37 35 35 36 35 34 33 33 33 34 34 34 34 35 35 34 35 38 39 39 36 35 34 34 35 35 35 35 35 36 36 35 35 35 35 34 35 36 37 38 38 38 37 35 33 34 34 35 36 37 38 38 38 37 39 41 43 41 39 36 33 33 33 35 37 39 40 40 40 39 39 39 39 39 38 38 37 37 37 37 37 38 38 37 38 36 35 35 35 35 35 36 37 37 37 38 38 39 40 41 41 40 39 39 40 40 40 40 40 40 42 43 43 43 44 45 45 45 45 44 43 42 42 42 42 42 42 42 42 43 45 45 46 49 50 50 50 49 48 47 46 45 46 45 45 45 46 47 47 48 48 47 47 45 44 44 43 43 43 43 42 42 41 41 40 41 43 44 44 43 44 44 45 46 46 46 45 45 44 46 46 47 47 48 48 48 49 48 47 46 46 46 46 46 49 51 51 48 48 48 49 51 50 48 46 42 40 40 42 42 39 39 39 38 38 37 37 37 40 39 38 37 38 42 41 40 38 38 37 38 38 39 39 42 40 38 37 36 34 33 34 33 33 32 32 31 31 33 35 35 34 32 31 32 34 32 32 33 31 30 27 24 24 28 28 28 28 29 30 30 30 31 31 31 31 31 29 28 28 29 29 29 29 30 30 30 29 29 29 30 30 29 28 28 27 27 27 27 27 27 28 27 25 24 23 24 24 25 25 25 26 25 24 24 26 27 29 29 29 28 28 29 29 29 29 28 29 30 29 27 25 25 27 29 31 31 30 31 31 32 31 29 29 29 29 28 27 29 29 30 31 34 35 34 33 31 29 27 28 29 29 29 31 31 31 29 27 27 27 28 27 27 27 28 28 28 30 31 31 31 33 34 34 33 33 34 33 33 32 28 26 26 23 22 23 25 26 26 25 23 22 24 25 25 24 24 24 23 22 21 21 24 27 27 27 29 31 32 34 37 33 33 35 38 37 37 39 37 35 35 38 41 42 43 44 42 42 44 45 45 47 46 47 50 47 33 21 22 18 16 6 1 0 0 0 0 0 0 0 0 0 0 0 0 0 0 0 0 0 0 0 0 0 0 0 0 0 0 0 0 0 0 0 0 0 0 0 0 0 0 0 0 0 0 0 0 0 0 0 0 0 0 0 0 0 0 0 0 0 0 0 0 0 0 0 0 0 0
0 0 0 0 0 0 0 0 0 0 0 0 0 0 0 0 0 0 0 0 0 0 0 0 0 0 0 0 0 0 0 0 0 0 0 0 0 0 0 0 0 0 0 0 0 0 0 0 0 0 0 0 0 0 0 0 0 0 0 0 0 0 0 0 0 0 0 3 11 19 12 21 40 42 49 49 51 55 56 49 46 43 41 40 38 37 37 38 40 43 42 40 37 35 34 34 33 34 32 31 31 30 30 30 29 29 30 31 32 31 32 32 32 32 32 31 30 30 31 32 32 33 33 33 32 33 33 33 33 33 33 33 32 31 33 33 32 31 32 34 35 34 34 35 36 36 36 36 36 35 36 37 37 38 39 38 37 37 37 37 37 40 42 44 43 43 44 43 43 42 42 43 44 45 45 45 44 44 43 41 39 40 41 41 39 39 37 37 37 38 38 37 36 35 34 34 36 38 38 38 36 33 31 31 32 32 33 34 35 35 36 36 37 36 36 36 37 36 35 34 34 32 33 33 33 34 34 34 35 38 39 37 35 34 33 33 35 35 34 35 36 36 35 35 35 35 35 35 36 36 37 37 38 38 37 35 33 35 35 36 36 36 37 38 38 37 37 39 41 39 37 35 33 33 34 36 37 39 39 40 40 39 39 39 39 39 38 37 37 37 37 38 40 40 39 36 37 36 35 35 36 36 36 36 36 37 38 38 38 39 39 39 40 40 39 40 41 42 42 41 42 41 41 42 42 42 43 44 43 44 44 43 43 42 42 42 42 42 42 42 42 43 44 46 47 49 51 52 50 50 50 48 47 46 47 47 47 47 48 49 48 49 50 48 47 45 44 43 43 43 43 43 42 42 42 41 42 42 43 44 43 43 44 45 44 45 45 45 44 43 44 46 46 46 46 46 46 45 46 45 45 45 46 47 47 47 49 50 49 48 49 50 51 51 49 48 45 41 39 40 41 41 39 39 39 38 38 37 37 38 40 39 39 37 37 40 40 38 37 39 39 40 40 40 41 41 39 38 39 37 34 34 34 33 33 32 32 31 31 33 36 35 34 32 32 33 34 32 33 32 30 29 26 22 23 27 28 28 28 29 30 28 27 27 28 29 29 29 27 26 26 28 29 28 28 28 29 28 28 28 28 29 28 29 29 28 28 27 27 28 27 28 28 27 25 23 23 23 22 23 24 24 25 24 24 24 25 26 28 28 29 29 29 29 29 28 28 28 29 29 28 27 25 24 26 29 31 30 29 30 30 30 30 30 29 29 28 27 27 28 29 29 29 31 32 32 31 31 29 27 28 29 29 29 30 30 32 30 28 27 26 27 26 25 26 27 27 27 30 31 30 30 31 33 33 33 32 33 33 35 32 29 26 25 22 22 22 23 23 25 26 25 23 25 26 26 26 23 23 24 24 22 22 24 26 28 29 30 31 32 33 35 33 32 33 37 36 36 37 37 36 33 36 40 42 43 43 41 41 44 45 44 47 45 46 48 51 42 25 21 23 20 11 4 1 0 0 0 0 0 0 0 0 0 0 0 0 0 0 0 0 0 0 0 0 0 0 0 0 0 0 0 0 0 0 0 0 0 0 0 0 0 0 0 0 0 0 0 0 0 0 0 0 0 0 0 0 0 0 0 0 0 0 0 0 0 0 0 0 0
0 0 0 0 0 0 0 0 0 0 0 0 0 0 0 0 0 0 0 0 0 0 0 0 0 0 0 0 0 0 0 0 0 0 0 0 0 0 0 0 0 0 0 0 0 0 0 0 0 0 0 0 0 0 0 0 0 0 0 0 0 0 0 0 0 0 1 6 12 13 11 39 50 48 47 50 54 57 51 47 45 43 41 40 39 37 38 40 40 42 41 38 36 34 34 33 34 34 32 31 30 30 31 31 30 30 30 31 31 31 32 32 33 33 32 31 31 31 32 32 32 33 33 33 32 33 33 32 33 33 33 33 32 31 32 32 33 33 33 34 35 34 34 34 35 35 35 35 34 34 35 36 38 38 37 36 37 36 36 36 38 41 43 43 42 42 42 42 41 41 42 43 44 44 45 44 43 43 42 40 39 40 41 41 40 38 38 38 38 38 38 37 36 35 34 34 36 38 38 38 36 33 32 32 32 32 33 34 36 36 36 36 37 36 36 37 37 37 36 34 33 31 31 32 33 34 34 34 35 38 38 36 34 33 32 33 35 35 35 36 36 36 35 35 36 35 35 34 36 37 37 38 38 38 37 35 34 34 35 36 36 35 37 38 37 36 36 38 40 38 37 35 34 34 35 37 38 39 39 40 40 39 38 38 38 39 38 37 36 37 38 39 39 39 38 36 35 36 36 36 36 36 36 36 36 37 37 38 38 38 38 39 40 39 39 40 42 42 43 42 42 41 41 41 41 41 42 43 42 42 42 42 42 42 43 42 42 42 40 40 41 42 44 45 47 49 51 52 51 50 50 49 47 46 46 47 46 46 47 47 47 48 49 47 46 45 44 44 43 43 44 43 43 42 43 43 43 43 43 43 42 43 45 46 43 44 44 45 44 43 42 44 45 45 44 44 45 44 45 45 45 47 50 50 48 48 49 49 49 49 50 51 51 50 48 47 42 40 39 40 41 40 40 39 38 37 37 37 37 38 40 39 38 37 37 39 38 37 38 39 40 41 41 40 41 39 37 37 37 35 34 35 34 32 31 31 31 31 31 33 36 34 32 31 31 31 31 31 31 29 26 26 23 19 21 24 26 27 27 28 29 27 25 24 25 26 28 27 26 25 26 28 28 28 27 27 28 27 27 27 27 27 27 27 27 26 26 26 26 26 26 26 27 26 25 24 24 23 22 22 23 22 23 23 23 23 24 25 26 27 28 28 29 29 28 27 27 28 29 29 29 28 26 25 26 28 29 29 30 31 31 31 30 31 29 29 28 27 27 28 28 28 28 30 30 29 30 31 29 28 28 29 29 30 30 31 31 30 28 26 27 27 26 25 26 29 28 28 30 30 31 30 30 31 32 32 33 34 34 36 32 30 27 25 23 23 23 24 23 25 26 26 23 24 26 28 27 24 22 22 24 23 23 24 26 28 29 30 31 33 33 33 33 32 31 35 36 37 36 36 36 33 35 39 41 43 43 42 41 43 45 45 48 47 47 46 49 48 35 23 20 20 17 6 2 0 0 0 0 0 0 0 0 0 0 0 0 0 0 0 0 0 0 0 0 0 0 0 0 0 0 0 0 0 0 0 0 0 0 0 0 0 0 0 0 0 0 0 0 0 0 0 0 0 0 0 0 0 0 0 0 0 0 0 0 0 0 0 0 0
0 0 0 0 0 0 0 0 0 0 0 0 0 0 0 0 0 0 0 0 0 0 0 0 0 0 0 0 0 0 0 0 0 0 0 0 0 0 0 0 0 0 0 0 0 0 0 0 0 0 0 0 0 0 0 0 0 0 0 0 0 0 0 0 0 2 2 8 15 8 28 48 51 49 47 51 55 57 48 46 44 43 41 40 38 38 38 40 40 42 40 37 36 35 34 34 34 34 32 30 30 30 30 30 30 29 29 30 31 31 32 33 33 33 33 32 32 32 32 31 32 33 33 32 32 33 33 32 33 32 33 33 31 30 31 31 33 33 33 34 34 35 35 34 34 34 34 34 34 34 35 35 37 37 36 35 36 36 36 37 39 41 41 42 41 41 40 41 41 42 43 43 44 44 45 44 42 42 40 40 39 40 41 41 40 39 39 39 38 38 37 36 35 34 33 34 35 36 36 35 36 35 35 35 34 34 35 36 37 37 38 37 39 37 37 38 38 37 37 35 34 31 31 33 34 34 34 34 35 37 38 36 33 33 33 33 34 36 36 37 35 36 35 35 35 35 34 35 37 37 38 38 39 38 37 36 34 35 35 36 36 35 36 37 36 36 37 39 41 41 40 38 37 37 37 37 37 38 38 40 39 38 38 38 37 37 37 36 35 37 38 39 39 39 38 35 35 36 37 37 37 37 37 37 37 36 37 37 37 37 39 40 41 40 40 41 42 42 43 42 42 41 41 41 40 41 41 42 42 41 41 42 42 42 43 43 41 41 40 41 42 43 44 44 45 48 50 51 51 50 50 48 48 48 48 48 47 47 46 47 47 48 48 46 45 45 44 44 43 43 44 43 42 43 44 44 43 43 44 43 42 43 44 45 43 44 43 43 43 42 40 40 42 43 43 43 42 41 43 43 46 48 50 50 49 49 50 48 48 49 50 51 51 51 47 45 41 39 39 41 41 41 41 40 38 37 37 37 37 37 38 38 37 37 37 39 38 39 41 40 39 40 42 41 41 38 38 38 38 36 35 35 33 31 30 30 30 30 30 33 34 30 30 29 29 29 27 28 27 25 23 23 20 18 20 23 25 25 25 26 26 25 23 21 22 25 27 26 26 26 26 27 28 27 27 26 26 26 26 26 26 26 26 26 25 24 25 25 25 25 26 25 26 25 24 23 22 22 22 22 22 22 22 21 22 21 22 23 24 25 26 26 26 27 26 25 26 27 27 28 28 28 26 26 25 26 27 28 29 30 29 29 30 29 28 28 28 28 27 28 29 28 28 28 28 28 28 29 28 28 29 30 29 31 32 32 32 30 28 27 27 27 27 27 28 30 30 29 30 30 30 29 31 31 32 33 34 33 33 35 33 30 27 25 24 25 25 26 24 25 26 25 24 25 26 28 27 26 24 23 23 23 25 25 26 28 29 31 31 33 33 33 33 33 32 34 36 38 37 36 35 34 35 36 37 39 41 42 42 42 44 46 48 49 48 46 49 50 43 29 21 18 20 9 5 1 0 0 0 0 0 0 0 0 0 0 0 0 0 0 0 0 0 0 0 0 0 0 0 0 0 0 0 0 0 0 0 0 0 0 0 0 0 0 0 0 0 0 0 0 0 0 0 0 0 0 0 0 0 0 0 0 0 0 0 0 0 0 0 0
0 0 0 0 0 0 0 0 0 0 0 0 0 0 0 0 0 0 0 0 0 0 0 0 0 0 0 0 0 0 0 0 0 0 0 0 0 0 0 0 0 0 0 0 0 0 0 0 0 0 0 0 0 0 0 0 0 0 0 0 0 0 0 0 2 3 7 15 15 18 45 51 51 49 49 53 54 53 48 46 45 43 41 40 39 39 39 40 40 42 39 37 35 35 35 35 34 34 32 31 31 31 31 30 30 29 29 31 31 32 33 34 33 33 32 32 32 32 31 31 32 33 33 32 31 32 32 32 32 32 32 33 31 31 32 33 34 34 34 33 34 36 35 34 34 34 34 34 34 34 35 36 36 36 35 36 37 37 36 38 38 39 40 41 41 41 39 41 40 41 42 43 44 44 44 43 42 41 40 42 42 42 42 42 40 40 40 40 39 37 36 36 34 33 33 34 35 36 35 35 35 35 36 36 36 36 36 36 34 35 36 37 38 37 36 37 36 37 36 34 33 30 30 31 33 33 33 34 34 36 36 35 34 33 33 33 35 36 37 37 36 37 36 35 35 34 35 36 38 38 38 39 40 39 39 38 35 35 35 36 36 35 36 35 35 35 37 39 44 45 44 41 39 39 39 37 37 37 38 39 39 37 37 37 36 35 35 35 34 36 37 39 39 39 38 36 37 38 38 38 38 38 38 38 37 36 36 36 36 37 39 41 42 41 41 41 41 42 42 42 42 42 41 41 40 40 41 41 40 40 40 41 41 41 42 41 41 41 40 41 43 44 45 45 46 48 49 50 50 50 50 49 49 50 49 48 47 46 46 46 47 48 48 47 45 45 44 44 44 44 43 43 42 44 45 45 44 44 44 43 41 42 43 43 42 43 41 39 39 39 38 38 40 43 43 44 42 42 43 44 45 46 48 47 48 50 52 51 50 51 52 52 51 50 47 43 39 38 38 40 40 40 40 39 38 37 37 37 37 37 38 38 37 36 37 38 38 40 43 41 38 39 42 42 40 38 39 40 38 37 37 35 31 29 29 29 33 31 29 29 28 26 27 27 27 26 27 26 25 23 21 23 20 20 21 22 23 23 23 22 22 22 22 21 21 25 27 27 27 26 27 28 28 26 26 26 25 25 25 26 27 27 27 27 25 24 25 25 24 24 25 26 26 25 25 23 22 21 22 23 24 24 23 22 23 23 23 23 23 24 25 24 25 25 26 26 26 26 26 27 27 27 27 28 25 26 25 25 27 28 27 28 30 28 28 26 27 28 29 28 28 28 28 27 26 27 27 27 28 29 32 32 31 32 32 33 32 31 30 29 29 28 28 28 27 29 29 29 30 31 31 31 29 29 31 31 31 31 31 33 33 30 27 25 24 24 24 25 23 25 25 25 26 26 26 27 28 28 26 23 22 21 22 24 26 27 29 31 31 33 32 32 33 34 33 33 34 37 37 35 33 34 34 34 35 38 41 42 43 42 43 45 46 48 49 48 48 50 49 37 25 19 24 16 10 3 0 0 0 0 0 0 0 0 0 0 0 0 0 0 0 0 0 0 0 0 0 0 0 0 0 0 0 0 0 0 0 0 0 0 0 0 0 0 0 0 0 0 0 0 0 0 0 0 0 0 0 0 0 0 0 0 0 0 0 0 0 0 0 0
0 0 0 0 0 0 0 0 0 0 0 0 0 0 0 0 0 0 0 0 0 0 0 0 0 0 0 0 0 0 0 0 0 0 0 0 0 0 0 0 0 0 0 0 0 0 0 0 0 0 0 0 0 0 0 0 0 0 0 0 0 0 0 0 3 5 10 15 12 35 53 52 49 48 49 52 52 49 47 46 44 43 40 40 39 41 41 40 40 40 38 35 35 35 35 34 34 33 33 32 31 31 30 29 29 29 31 31 31 32 33 34 33 32 32 32 32 32 31 31 32 33 33 33 32 32 32 31 30 30 31 31 32 32 32 33 35 35 34 34 35 35 34 33 33 34 35 34 34 35 36 37 36 35 35 36 37 37 37 38 38 38 39 41 40 40 41 41 42 42 42 43 44 44 43 42 41 42 41 42 44 43 43 42 41 39 39 39 38 37 36 34 33 32 34 35 34 34 34 34 34 34 36 37 38 38 37 35 33 33 35 36 38 37 35 36 35 35 36 35 33 31 30 31 32 32 33 32 33 35 37 36 34 33 33 33 35 36 36 37 37 36 35 35 35 34 34 36 37 38 39 39 39 40 39 38 36 36 36 36 36 36 35 35 35 34 37 40 46 45 43 42 40 39 40 38 36 36 37 38 37 37 37 36 36 34 35 34 35 36 37 39 40 39 39 38 38 38 38 38 38 39 39 38 37 37 36 37 38 39 41 43 42 41 41 41 41 41 42 42 42 42 42 41 40 40 40 40 40 40 40 40 40 41 41 41 41 41 41 42 44 45 46 46 47 48 48 49 50 50 49 49 49 49 49 49 49 47 46 47 49 48 48 46 46 45 45 44 44 43 44 43 43 44 45 46 45 45 45 45 42 42 42 42 42 41 40 39 39 38 37 39 41 43 44 45 43 42 41 42 44 44 45 46 47 51 55 52 50 53 53 52 50 49 45 43 40 38 38 39 38 38 38 39 39 37 38 38 37 37 38 38 37 38 36 36 38 40 41 40 39 38 40 41 40 39 39 39 39 38 37 35 33 31 30 29 30 28 26 26 25 26 27 27 27 28 28 27 25 24 21 22 21 20 21 21 21 22 21 19 18 18 20 22 23 25 26 26 26 26 26 26 27 26 26 26 25 26 25 25 25 26 27 27 25 26 26 26 24 25 26 26 26 26 25 23 22 22 22 23 25 24 23 24 24 24 25 24 23 23 25 25 25 26 26 25 24 26 26 26 26 27 27 29 25 24 25 24 24 25 26 28 30 29 28 26 26 27 28 27 27 28 27 27 27 27 27 28 28 30 31 32 34 33 34 33 31 31 31 30 28 28 28 28 27 28 29 29 29 30 31 31 30 28 29 31 31 30 29 32 32 31 28 25 24 24 24 26 24 26 25 26 26 27 27 27 28 29 28 27 23 22 23 24 24 26 29 31 32 33 33 33 32 34 36 34 33 35 37 33 31 31 34 34 34 38 41 42 44 44 43 44 47 48 49 50 49 50 48 46 33 20 19 20 14 7 0 0 0 0 0 0 0 0 0 0 0 0 0 0 0 0 0 0 0 0 0 0 0 0 0 0 0 0 0 0 0 0 0 0 0 0 0 0 0 0 0 0 0 0 0 0 0 0 0 0 0 0 0 0 0 0 0 0 0 0 0 0 0 0
0 0 0 0 0 0 0 0 0 0 0 0 0 0 0 0 0 0 0 0 0 0 0 0 0 0 0 0 0 0 0 0 0 0 0 0 0 0 0 0 0 0 0 0 0 0 0 0 0 0 0 0 0 0 0 0 0 0 0 0 0 0 0 0 7 7 15 10 27 44 54 52 50 50 50 50 49 48 47 46 44 43 41 41 40 42 42 41 40 39 37 35 35 34 34 34 34 34 33 32 31 31 29 28 29 29 30 31 32 33 33 34 32 32 32 32 32 32 32 32 32 32 32 32 32 31 31 31 31 30 31 31 32 32 33 34 36 36 35 35 35 35 34 33 34 34 35 35 35 36 37 36 36 35 35 36 37 36 37 38 37 37 39 41 41 41 41 42 43 42 42 42 42 42 42 41 42 43 43 45 45 44 44 42 41 39 38 38 38 38 37 35 32 32 34 34 33 32 33 33 34 33 34 35 37 38 38 36 34 33 35 36 37 36 34 34 34 35 36 34 33 32 31 31 32 33 34 34 34 35 36 36 35 34 34 35 37 37 37 38 38 37 36 35 36 36 36 37 37 37 38 38 39 40 39 38 37 37 37 36 36 36 35 34 35 34 37 39 44 43 42 42 41 40 39 37 37 37 38 38 37 36 36 36 35 34 34 34 35 36 38 40 40 40 39 39 38 38 38 38 38 39 38 38 37 37 36 37 39 40 42 43 42 41 41 41 41 41 41 41 42 41 41 40 40 39 40 40 40 39 40 40 40 40 41 41 41 41 42 43 44 45 46 47 47 48 48 49 49 49 49 49 49 50 50 50 49 47 46 46 46 46 46 45 45 45 45 44 43 42 43 44 44 45 45 45 45 45 45 45 44 43 42 42 41 40 39 38 38 37 37 40 43 44 44 44 43 42 40 41 43 44 44 46 46 49 52 50 50 52 53 51 49 47 45 44 42 41 41 39 37 37 39 40 40 39 40 39 38 38 38 38 38 37 36 35 37 39 39 37 37 38 39 39 40 40 40 40 38 37 36 35 34 32 31 29 29 27 26 25 25 26 26 26 26 28 27 27 26 24 21 22 21 21 21 21 19 20 19 16 15 17 20 22 23 25 26 26 26 25 25 26 26 25 25 25 25 26 25 24 24 25 26 26 26 26 27 27 25 25 25 26 26 25 24 24 23 24 24 24 24 24 26 26 26 26 26 25 25 24 25 25 25 26 26 25 25 26 26 25 25 26 26 27 25 23 23 21 22 24 26 28 29 30 29 27 26 27 27 27 27 27 26 28 28 29 29 29 29 30 31 33 36 35 34 33 32 32 33 33 30 29 28 29 27 28 28 28 28 30 31 32 31 29 29 30 30 28 28 31 32 31 29 25 24 25 25 27 25 26 26 27 28 27 28 27 28 29 29 28 27 25 25 24 24 25 29 31 33 34 34 35 33 35 36 34 33 35 35 32 30 28 30 33 34 36 38 40 43 43 44 44 47 49 49 50 50 50 50 50 42 27 19 22 16 11 2 1 0 0 0 0 0 0 0 0 0 0 0 0 0 0 0 0 0 0 0 0 0 0 0 0 0 0 0 0 0 0 0 0 0 0 0 0 0 0 0 0 0 0 0 0 0 0 0 0 0 0 0 0 0 0 0 0 0 0 0 0 0 0
0 0 0 0 0 0 0 0 0 0 0 0 0 0 0 0 0 0 0 0 0 0 0 0 0 0 0 0 0 0 0 0 0 0 0 0 0 0 0 0 0 0 0 0 0 0 0 0 0 0 0 0 0 0 0 0 0 0 0 0 0 0 0 1 7 15 12 10 38 49 54 51 49 51 51 48 49 48 47 45 44 43 40 41 40 41 40 40 39 38 37 36 36 34 34 35 34 34 33 32 32 31 29 28 30 30 31 32 33 33 33 34 32 32 32 32 32 32 32 32 32 31 30 31 32 31 31 30 30 30 30 31 32 33 34 34 35 36 34 33 33 34 34 33 34 34 35 35 36 36 37 36 34 33 34 35 37 36 37 37 37 37 39 42 41 40 41 43 43 42 41 41 41 41 41 40 43 45 46 48 45 44 44 42 40 37 36 36 37 38 37 34 32 31 33 33 32 31 31 31 33 32 33 34 34 36 37 37 35 34 34 35 36 36 33 33 33 33 34 33 32 32 30 30 31 34 34 34 34 36 36 35 34 34 36 36 36 36 36 37 38 38 37 36 36 37 37 37 37 36 36 37 39 39 38 38 38 38 38 37 37 36 35 35 35 34 36 37 39 38 39 39 39 38 38 36 37 38 39 37 36 36 36 36 35 35 35 35 37 38 39 40 41 40 39 38 38 37 38 37 38 38 38 37 37 37 38 38 40 41 42 43 42 41 41 41 40 40 40 40 41 41 40 40 39 39 40 40 39 39 39 39 39 40 41 42 40 41 42 43 44 44 45 46 47 47 48 48 48 49 49 49 49 50 49 50 49 47 46 46 46 46 45 44 44 44 45 44 44 43 44 45 46 45 45 45 45 45 46 46 45 44 43 40 40 37 37 38 39 37 38 39 41 42 44 43 43 43 42 44 45 48 47 47 45 45 48 48 49 50 52 50 49 50 48 48 46 44 43 40 38 38 40 39 40 40 41 41 40 39 39 38 37 36 36 36 36 37 36 37 36 38 39 39 39 40 40 41 40 39 37 37 34 33 31 30 30 28 26 25 26 26 25 26 28 29 29 28 27 25 22 21 21 20 20 19 19 19 18 17 15 18 20 21 22 24 26 25 25 24 24 24 24 23 23 24 25 25 25 24 24 25 25 26 27 28 28 28 26 25 25 25 24 24 24 24 24 24 24 24 23 24 26 27 28 29 30 29 26 25 25 25 26 27 26 25 25 26 26 25 25 27 28 27 24 22 21 19 20 23 26 28 29 29 29 27 25 26 26 26 26 25 25 27 29 30 30 29 29 29 30 33 36 35 36 37 33 32 34 33 31 30 29 30 29 28 27 28 27 28 30 31 31 29 28 28 28 27 27 29 31 31 29 25 25 27 27 27 25 25 26 29 31 28 28 27 28 30 31 30 29 27 26 24 25 25 29 32 33 33 33 34 35 35 32 33 32 33 33 31 30 27 28 32 34 36 37 39 41 44 47 47 47 48 49 52 51 50 49 52 50 39 23 23 20 17 5 1 0 0 0 0 0 0 0 0 0 0 0 0 0 0 0 0 0 0 0 0 0 0 0 0 0 0 0 0 0 0 0 0 0 0 0 0 0 0 0 0 0 0 0 0 0 0 0 0 0 0 0 0 0 0 0 0 0 0 0 0 0 0
0 0 0 0 0 0 0 0 0 0 0 0 0 0 0 0 0 0 0 0 0 0 0 0 0 0 0 0 0 0 0 0 0 0 0 0 0 0 0 0 0 0 0 0 0 0 0 0 0 0 0 0 0 0 0 0 0 0 0 0 0 0 0 3 12 15 6 23 46 53 54 52 49 50 50 49 50 50 48 46 44 43 40 40 40 38 38 37 39 38 37 36 36 35 35 35 34 34 33 33 32 30 29 28 31 31 32 33 33 33 33 33 32 32 32 32 32 32 32 32 31 30 30 31 31 31 30 30 30 30 30 31 32 33 34 35 35 36 34 33 32 33 34 35 35 34 34 34 35 36 36 35 33 32 33 35 37 35 36 37 38 38 40 42 41 40 40 42 43 42 41 41 41 41 41 41 43 47 47 49 45 44 43 41 40 38 36 36 37 38 37 35 33 32 32 32 31 30 30 31 33 33 34 34 34 35 37 37 37 35 34 35 36 36 34 33 33 34 34 32 32 32 32 32 32 35 35 34 34 36 36 36 35 36 36 36 35 37 39 40 40 40 40 38 37 37 37 37 36 36 36 37 37 38 38 37 38 38 38 38 37 36 36 35 35 34 34 34 35 35 35 36 38 38 38 37 38 39 38 37 36 37 37 36 35 35 36 37 38 39 40 41 41 40 38 37 37 37 38 37 37 37 37 37 37 38 39 40 41 42 42 42 42 41 40 40 41 41 41 41 40 40 40 39 40 40 40 40 40 39 40 39 39 40 41 42 41 42 42 42 42 42 43 44 46 46 46 47 48 50 50 49 49 49 48 49 49 47 47 47 48 47 46 44 43 44 45 45 45 46 47 47 47 46 45 44 45 46 46 45 45 45 44 41 39 37 38 39 40 39 38 38 39 40 44 44 44 45 45 45 47 48 48 47 44 42 44 45 47 47 50 50 50 51 50 49 47 44 41 39 38 38 39 38 39 40 41 41 41 40 40 39 39 36 37 36 37 37 35 36 36 38 39 39 39 40 40 40 40 39 38 38 35 33 32 30 30 29 26 26 26 26 26 29 32 33 30 30 28 25 22 22 21 21 20 19 18 17 15 14 16 18 18 20 21 22 24 24 24 23 22 22 22 21 22 23 23 25 25 24 24 24 25 26 27 27 27 28 27 26 25 24 23 23 23 24 24 25 24 24 24 24 25 27 28 30 31 30 27 25 25 25 27 28 27 26 25 26 25 25 26 28 29 29 26 23 22 20 21 24 26 29 29 28 28 26 24 24 24 25 24 22 23 27 29 30 30 29 29 28 29 33 36 36 37 38 36 34 34 34 33 32 30 31 30 29 28 28 26 28 30 32 31 29 27 27 28 28 28 29 30 30 30 27 27 28 27 28 25 24 25 29 31 28 28 28 29 30 30 29 28 28 28 26 25 25 27 29 31 32 32 32 34 35 33 33 32 31 31 31 29 28 27 32 34 38 39 39 40 44 47 47 46 48 49 49 51 49 47 50 52 48 28 21 18 20 10 3 0 0 0 0 0 0 0 0 0 0 0 0 0 0 0 0 0 0 0 0 0 0 0 0 0 0 0 0 0 0 0 0 0 0 0 0 0 0 0 0 0 0 0 0 0 0 0 0 0 0 0 0 0 0 0 0 0 0 0 0 0 0
0 0 0 0 0 0 0 0 0 0 0 0 0 0 0 0 0 0 0 0 0 0 0 0 0 0 0 0 0 0 0 0 0 0 0 0 0 0 0 0 0 0 0 0 0 0 0 0 0 0 0 0 0 0 0 0 0 0 0 0 0 1 2 5 15 14 13 39 49 53 54 53 50 49 48 49 50 52 49 47 46 43 39 39 39 37 37 37 39 38 37 37 36 35 35 35 35 33 33 32 31 30 29 29 31 32 33 32 32 32 32 32 32 32 32 31 31 33 32 32 31 31 31 32 32 31 31 30 31 31 31 32 33 33 33 33 35 36 35 34 33 34 34 35 35 34 34 34 35 35 34 32 32 32 33 35 36 35 36 37 39 39 39 42 41 40 40 41 42 42 41 41 41 41 42 43 45 52 51 51 45 43 42 40 39 37 36 35 36 36 35 34 34 32 32 32 32 31 31 31 33 33 34 35 35 36 37 38 38 37 35 36 37 36 34 33 34 34 33 31 31 33 34 35 33 35 34 33 33 34 35 36 36 36 35 34 35 39 41 40 41 41 41 39 38 38 38 37 36 35 36 36 36 36 36 37 37 38 38 38 37 36 36 36 35 34 33 32 33 33 35 36 37 38 39 38 39 39 39 37 37 38 38 36 36 35 36 37 38 38 39 40 40 40 39 37 37 38 39 37 37 36 37 37 37 38 39 41 42 43 42 41 41 40 40 40 40 41 41 41 39 40 40 40 41 41 41 40 40 39 40 40 40 41 42 42 42 43 42 41 41 41 42 43 44 45 45 46 47 48 48 48 47 48 48 49 50 49 48 48 48 47 46 45 44 44 45 45 47 48 48 46 45 45 45 45 45 46 45 44 44 43 43 41 38 37 39 40 41 40 39 38 38 40 44 45 45 45 47 47 47 47 48 48 45 43 43 45 45 45 47 48 50 52 51 49 47 44 41 39 38 38 38 38 38 40 40 40 41 40 40 40 40 37 36 36 36 36 35 34 36 36 37 37 37 39 40 41 42 41 38 37 34 32 31 29 26 25 25 26 28 29 30 33 36 35 30 28 26 22 19 21 22 21 20 19 18 15 14 14 17 16 17 19 20 21 22 23 23 22 21 20 20 20 20 21 22 24 25 25 24 24 25 26 26 26 27 28 27 26 25 23 22 22 23 24 25 25 25 25 24 23 24 26 27 28 28 27 25 25 25 26 27 27 27 26 25 25 25 26 28 28 29 29 28 24 23 22 22 23 26 28 28 27 26 24 23 23 23 24 22 20 21 25 30 30 30 29 29 28 29 32 35 35 36 38 37 35 34 35 35 33 31 31 31 30 28 28 26 28 30 33 31 30 28 28 28 29 28 29 30 31 31 29 29 29 28 28 27 25 26 27 29 28 28 28 30 29 29 29 27 29 29 27 26 26 26 28 29 31 31 31 32 35 34 33 33 30 30 29 29 29 30 33 37 41 42 41 42 45 46 45 44 45 48 50 50 48 47 49 53 52 37 23 18 20 15 6 2 0 0 0 0 0 0 0 0 0 0 0 0 0 0 0 0 0 0 0 0 0 0 0 0 0 0 0 0 0 0 0 0 0 0 0 0 0 0 0 0 0 0 0 0 0 0 0 0 0 0 0 0 0 0 0 0 0 0 0 0 0
0 0 0 0 0 0 0 0 0 0 0 0 0 0 0 0 0 0 0 0 0 0 0 0 0 0 0 0 0 0 0 0 0 0 0 0 0 0 0 0 0 0 0 0 0 0 0 0 0 0 0 0 0 0 0 0 0 0 0 0 0 1 3 12 18 7 24 48 53 54 53 52 50 48 48 50 51 52 50 48 46 42 38 38 38 37 37 38 40 39 38 39 38 37 36 35 35 34 32 32 31 30 30 30 32 33 33 32 31 32 32 32 31 31 31 31 31 32 32 32 32 32 33 33 32 32 31 30 32 32 32 33 33 32 33 32 34 36 36 35 34 34 34 35 34 34 34 35 35 34 33 32 33 33 33 34 35 35 37 38 40 39 39 41 41 40 40 41 41 41 41 40 40 40 42 44 47 51 48 47 44 43 41 39 38 37 36 36 36 36 35 34 34 32 32 32 31 30 31 32 31 31 33 35 36 36 38 39 40 39 37 37 36 35 34 33 34 35 33 32 33 35 36 37 35 35 34 34 34 34 35 37 37 35 34 35 37 40 42 40 39 39 40 39 38 38 38 37 36 34 35 36 35 35 35 36 37 37 37 37 36 36 36 36 35 34 33 31 32 33 35 37 37 38 39 39 40 40 39 38 38 39 38 36 36 36 37 37 38 38 38 39 39 39 38 37 36 37 38 37 37 36 37 37 38 38 40 41 42 42 41 41 41 41 41 40 40 40 40 39 38 39 39 39 40 40 40 40 39 40 41 41 41 42 43 43 42 43 43 41 41 41 42 43 43 43 44 45 46 46 47 47 48 48 48 49 50 48 48 48 48 47 47 46 46 45 45 46 48 49 48 47 47 47 46 46 46 46 45 43 41 41 41 41 40 39 40 41 40 41 38 37 37 40 44 45 45 44 47 48 47 47 49 49 45 43 43 43 44 43 45 47 49 51 51 49 46 44 41 39 38 38 38 38 39 39 39 40 41 39 38 39 38 36 36 35 34 36 36 35 37 36 37 37 37 40 40 41 39 38 37 36 33 31 29 27 25 24 25 27 30 32 31 34 34 31 27 26 22 17 16 18 19 20 19 20 17 15 14 13 14 14 16 18 20 21 22 22 22 21 20 20 20 20 20 21 21 23 25 25 24 25 25 27 26 26 27 27 27 27 25 23 22 22 23 24 25 25 26 25 24 24 25 27 28 27 26 26 25 26 27 26 27 26 27 27 26 26 25 26 30 31 31 29 28 24 24 24 25 26 27 28 28 27 26 24 23 23 23 23 22 20 21 24 28 30 30 29 28 27 30 32 34 33 34 37 38 36 35 37 37 34 32 31 31 30 29 27 26 27 29 32 32 31 31 30 29 30 29 30 32 31 32 31 30 30 29 29 28 27 27 26 27 28 28 29 28 28 28 29 27 29 29 27 28 27 26 27 28 30 30 30 31 33 32 32 33 31 31 28 30 30 32 33 38 43 45 44 45 46 44 44 44 45 47 48 50 48 47 48 53 54 48 31 20 19 20 10 4 0 0 0 0 0 0 0 0 0 0 0 0 0 0 0 0 0 0 0 0 0 0 0 0 0 0 0 0 0 0 0 0 0 0 0 0 0 0 0 0 0 0 0 0 0 0 0 0 0 0 0 0 0 0 0 0 0 0 0 0 0
0 0 0 0 0 0 0 0 0 0 0 0 0 0 0 0 0 0 0 0 0 0 0 0 0 0 0 0 0 0 0 0 0 0 0 0 0 0 0 0 0 0 0 0 0 0 0 0 0 0 0 0 0 0 0 0 0 0 0 0 0 3 5 12 14 15 37 53 56 56 53 48 49 48 48 51 52 52 51 47 45 41 38 38 39 38 39 39 41 39 39 39 39 39 37 36 35 33 31 31 31 31 31 31 32 33 33 32 32 32 32 32 31 31 31 31 32 32 32 32 33 33 33 33 33 32 31 31 32 32 33 33 32 32 33 34 34 36 36 36 35 35 35 35 34 34 34 35 35 34 33 32 32 33 34 34 35 36 38 39 40 39 40 41 41 40 40 40 41 41 41 40 40 41 41 45 47 48 46 46 44 42 40 39 37 36 36 36 37 36 35 34 34 33 32 32 29 31 32 34 32 32 32 34 36 37 39 41 41 41 38 37 35 34 34 34 36 35 35 34 36 39 39 39 37 37 36 35 34 33 35 36 37 35 35 37 39 41 42 39 39 39 40 39 39 38 37 36 35 34 35 37 37 36 36 38 38 36 37 36 35 36 36 36 36 35 34 32 32 34 36 38 39 40 40 40 41 41 40 39 38 38 37 35 36 36 38 38 38 38 38 39 38 37 37 36 36 36 37 37 37 37 37 37 39 39 40 40 42 42 41 41 42 42 42 41 40 39 39 38 38 39 39 40 41 41 41 41 41 41 42 42 42 42 43 43 43 43 43 42 41 41 42 42 42 43 43 44 45 46 47 48 48 48 48 49 48 47 47 46 46 46 47 47 46 45 45 46 47 48 46 46 46 47 46 45 45 44 43 42 40 41 41 42 41 41 41 42 41 42 39 38 37 40 44 44 44 41 44 47 48 47 48 49 46 45 44 44 45 44 45 47 49 51 51 49 47 45 42 40 40 40 40 41 40 39 39 39 40 37 36 36 36 35 34 34 34 36 38 38 37 37 38 38 39 42 41 40 37 37 36 33 31 29 29 27 25 24 25 29 33 35 30 30 29 24 23 23 17 13 15 17 18 20 21 21 18 16 14 14 14 15 16 18 19 21 21 22 21 20 19 20 20 20 21 21 21 22 24 24 24 24 25 26 27 27 27 27 27 27 26 24 24 23 23 25 25 25 25 25 25 25 26 27 28 27 26 27 27 28 29 28 27 27 27 27 28 28 28 28 31 32 32 28 29 25 25 25 27 27 28 27 28 27 27 25 24 24 23 23 22 21 21 23 27 29 29 29 28 27 30 32 34 34 35 36 37 36 35 37 38 36 34 33 31 31 30 28 27 27 28 31 32 31 32 31 30 32 30 29 32 32 33 32 31 30 29 28 26 26 26 26 26 27 28 29 27 27 28 29 29 28 27 27 28 28 27 27 27 29 29 30 29 32 31 31 32 31 30 27 30 31 31 32 36 41 44 44 45 46 44 43 43 45 47 48 48 49 49 51 54 56 54 41 25 18 22 15 8 2 0 0 0 0 0 0 0 0 0 0 0 0 0 0 0 0 0 0 0 0 0 0 0 0 0 0 0 0 0 0 0 0 0 0 0 0 0 0 0 0 0 0 0 0 0 0 0 0 0 0 0 0 0 0 0 0 0 0 0 0
0 0 0 0 0 0 0 0 0 0 0 0 0 0 0 0 0 0 0 0 0 0 0 0 0 0 0 0 0 0 0 0 0 0 0 0 0 0 0 0 0 0 0 0 0 0 0 0 0 0 0 0 0 0 0 0 0 0 0 0 0 5 9 16 6 30 49 57 57 52 50 49 49 49 49 52 51 50 51 46 43 40 38 39 40 39 40 40 41 39 38 39 40 40 38 37 35 33 31 30 31 32 32 32 32 32 32 31 31 32 32 31 32 31 31 32 32 33 32 33 34 34 34 34 33 32 32 33 32 32 32 32 32 32 33 34 35 37 37 35 34 34 35 36 36 34 35 35 34 33 32 31 32 33 34 34 35 36 38 38 39 39 40 41 41 40 40 40 40 40 41 39 40 41 41 45 46 45 44 45 44 42 39 38 36 36 36 36 37 36 35 35 33 33 33 32 29 33 36 39 34 33 33 34 36 38 41 43 44 42 39 37 35 34 35 35 38 38 37 36 38 41 41 40 39 40 39 37 35 34 35 36 36 34 36 39 40 41 41 38 40 39 40 39 38 37 36 34 33 33 34 36 36 36 36 39 39 36 36 35 34 35 35 35 36 36 34 32 33 35 38 39 40 42 41 41 41 40 40 39 37 37 36 35 36 36 39 40 38 38 38 38 37 36 36 36 35 35 36 37 37 36 36 38 40 40 40 41 42 42 42 42 42 43 43 41 40 39 39 39 38 39 40 41 42 42 42 43 43 43 44 44 44 44 44 44 44 44 43 42 42 42 42 42 42 42 42 43 45 46 46 47 48 48 47 47 47 46 45 44 45 45 46 46 46 45 46 47 48 49 47 48 48 48 46 46 44 43 42 42 41 43 44 45 43 42 41 43 43 43 41 40 38 41 44 45 43 40 43 46 47 47 48 48 47 47 48 50 48 47 47 49 51 52 52 49 47 45 44 42 42 41 41 40 41 40 39 38 38 36 35 35 35 34 33 34 35 36 40 41 40 38 38 38 41 43 41 39 38 38 36 32 30 29 29 27 26 26 25 26 28 31 27 27 25 22 23 21 16 15 18 18 20 22 23 23 21 18 15 15 15 16 16 17 18 19 20 21 20 19 19 20 20 21 22 21 23 23 24 23 23 23 24 25 27 27 27 28 27 26 25 23 24 23 23 24 24 24 25 24 24 24 26 26 28 28 27 29 29 30 30 29 28 28 28 28 29 31 30 30 30 31 31 28 27 24 24 24 25 26 26 24 27 27 27 26 24 23 23 23 23 22 21 23 26 27 28 30 29 28 29 30 32 33 34 35 38 37 37 36 37 36 34 33 31 32 31 29 28 28 28 30 32 31 32 33 33 34 31 28 31 32 34 34 33 31 29 27 26 26 25 27 26 27 28 30 27 27 27 29 31 29 27 27 28 28 28 26 26 28 29 29 30 31 31 31 32 32 30 28 27 31 32 34 36 40 43 44 43 45 46 43 43 46 48 49 47 49 50 50 53 54 56 49 33 20 21 17 10 5 0 0 0 0 0 0 0 0 0 0 0 0 0 0 0 0 0 0 0 0 0 0 0 0 0 0 0 0 0 0 0 0 0 0 0 0 0 0 0 0 0 0 0 0 0 0 0 0 0 0 0 0 0 0 0 0 0 0 0 0
